# .PCD v0.7 - Point Cloud Data file format
VERSION 0.7
FIELDS x y z intensity timestamp ring
SIZE 4 4 4 4 8 2
TYPE F F F F F U
COUNT 1 1 1 1 1 1
WIDTH 1274
HEIGHT 1
VIEWPOINT 0 0 0 1 0 0 0
POINTS 1274
DATA ascii
38.664474 23.508368 -0.65555149 18 0 0
38.429253 23.558704 -0.62154788 27 0 0
38.921207 24.056999 -0.61495173 10 0 0
66.332886 77.940872 -3.3057771 1 0 0
66.161842 78.319695 -3.2040646 1 0 0
44.243954 21.502798 -2.3800945 12 0 0
43.741314 21.637304 -2.3099029 8 0 0
66.476692 35.331402 -1.8398652 19 0 0
66.488831 35.650997 -1.791105 29 0 0
66.912506 36.194553 -1.7662253 30 0 0
66.735863 36.385574 -1.7249179 30 0 0
67.549347 37.181641 -1.6959306 16 0 0
67.393631 37.372276 -1.6545917 30 0 0
37.165688 50.116695 -4.275456 21 0 0
37.100079 49.683029 -4.2924261 25 0 0
36.885448 49.002003 -4.3210912 25 0 0
36.732265 48.480766 -4.3492985 11 0 0
36.564503 47.893646 -4.3826199 23 0 0
36.422108 47.363434 -4.3981285 17 0 0
29.007086 29.538445 -4.7827802 17 0 0
29.089354 29.840212 -4.7701292 17 0 0
29.241966 30.196455 -4.7743897 17 0 0
29.453236 30.627832 -4.7812443 18 0 0
29.734802 31.170105 -4.8015475 18 0 0
29.910458 31.563148 -4.8160553 19 0 0
34.652092 42.548275 -4.8201289 10 0 0
34.738289 42.959507 -4.7946529 8 0 0
34.802963 43.394615 -4.7591181 12 0 0
35.039558 43.971939 -4.7411489 27 0 0
35.523613 44.916191 -4.7785635 13 0 0
35.483551 45.188839 -4.7337828 9 0 0
33.113777 27.835037 -2.1081333 8 0 0
33.370338 27.852491 -2.1562879 11 0 0
33.489964 27.744711 -2.1954792 19 0 0
33.682503 27.696671 -2.2395852 18 0 0
33.890266 27.659931 -2.2925766 18 0 0
34.106556 27.628803 -2.3310707 18 0 0
64.392685 35.752235 -2.9195504 28 0 0
64.60495 36.165695 -2.8831117 28 0 0
64.560272 36.45211 -2.8481834 29 0 0
64.70063 36.844749 -2.834286 23 0 0
40.693584 23.371506 -1.7453599 15 0 0
64.834686 37.553127 -2.7342851 29 0 0
64.918289 37.919991 -2.6910985 15 0 0
33.609959 24.87006 -3.819804 12 0 0
33.590374 24.665558 -3.836616 10 0 0
33.554188 24.450197 -3.8441455 22 0 0
20.138462 34.21563 -1.3448071 10 0 0
33.658077 24.337538 -3.8677378 8 0 0
20.381853 34.354263 -1.4019046 3 0 0
33.966751 24.371647 -3.929719 23 0 0
20.526402 34.324299 -1.4525208 8 0 0
34.1745 24.340454 -3.9808407 9 0 0
20.658188 34.272514 -1.4953349 8 0 0
35.800632 23.957386 -4.3376417 10 0 0
36.025944 23.917456 -4.3924122 9 0 0
37.306164 24.375288 -4.5973277 14 0 0
53.011044 80.670914 -4.8224182 1 0 0
37.104595 24.049994 -4.5927949 10 0 0
52.977505 80.009926 -4.9114676 1 0 0
37.00156 23.791075 -4.6002617 10 0 0
36.432453 23.236858 -4.5417619 9 0 0
36.321392 22.979179 -4.5477266 9 0 0
36.142075 22.698259 -4.5459566 9 0 0
35.896412 22.352242 -4.541553 9 0 0
35.891159 22.175488 -4.560863 9 0 0
35.591167 21.80175 -4.5489225 9 0 0
35.298889 21.462059 -4.5389276 9 0 0
33.509838 35.796867 -4.8683071 14 0 0
33.347176 35.362423 -4.8772202 22 0 0
33.209805 34.959152 -4.8808622 22 0 0
33.221489 34.727879 -4.9155822 20 0 0
33.096478 34.344307 -4.9289021 21 0 0
32.847885 33.837254 -4.923295 21 0 0
36.466358 45.000072 -4.4974294 27 0 0
36.486843 44.721352 -4.5323157 20 0 0
36.607773 44.519485 -4.5868053 21 0 0
36.401459 43.939316 -4.6109052 27 0 0
36.350372 43.567188 -4.6449537 27 0 0
36.432915 43.342186 -4.6948662 27 0 0
36.879101 43.563351 -4.8129911 22 0 0
28.547113 25.452431 -4.7909207 13 0 0
28.377033 25.114712 -4.780489 20 0 0
28.207405 24.789534 -4.7772617 12 0 0
27.86825 24.311022 -4.7440586 12 0 0
27.807198 24.078857 -4.7577696 16 0 0
27.715385 23.822165 -4.7595191 11 0 0
27.583733 23.533768 -4.7606864 11 0 0
34.323048 27.596439 -2.3697727 9 0 0
34.528023 27.553495 -2.4078665 13 0 0
34.744526 27.518431 -2.45471 17 0 0
35.000443 27.51297 -2.5046213 15 0 0
35.158348 27.429205 -2.547749 19 0 0
35.342045 27.38447 -2.5936117 17 0 0
35.564655 27.329189 -2.6411512 9 0 0
34.463863 24.356651 -4.0412846 32 0 0
34.50576 24.197111 -4.065465 26 0 0
34.8008 24.21422 -4.1121483 8 0 0
35.013298 24.1721 -4.1642432 19 0 0
35.194275 24.107046 -4.197782 9 0 0
35.426796 24.085066 -4.2607617 29 0 0
35.669716 24.059526 -4.3020954 19 0 0
64.021965 33.726398 -3.1340933 10 0 0
51.645679 27.448935 -2.4922328 6 0 0
64.273842 34.463333 -3.069442 11 0 0
64.207138 34.760132 -3.0218344 22 0 0
64.255165 35.062157 -2.9911585 21 0 0
64.377502 35.435741 -2.9514925 27 0 0
22.914026 20.229877 -4.5627146 38 0 0
22.997314 20.453888 -4.5722337 29 0 0
23.024622 20.629814 -4.5650945 20 0 0
23.16231 20.906734 -4.5686107 9 0 0
23.293535 21.165779 -4.5802627 9 0 0
23.467344 21.496326 -4.5973425 9 0 0
63.848454 67.352821 -4.2792406 1 0 0
63.827759 67.803467 -4.2122583 1 0 0
64.096695 68.639153 -4.1496139 11 0 0
64.326393 69.344696 -4.0966487 11 0 0
64.31649 69.821274 -4.0285206 11 0 0
64.392876 70.420403 -3.9660256 16 0 0
65.069 38.297981 -2.6630125 29 0 0
65.314827 38.781109 -2.5995064 21 0 0
39.668648 24.147373 -1.5162395 1 0 0
39.372025 24.155573 -1.4758341 4 0 0
35.077362 21.151669 -4.522151 9 0 0
34.921623 20.883606 -4.5209303 9 0 0
34.743042 20.604311 -4.5165553 15 0 0
38.029484 52.845741 -4.1646352 14 0 0
34.699963 20.407225 -4.5296588 26 0 0
38.161808 52.6604 -4.2055707 24 0 0
34.570072 20.160669 -4.5313215 30 0 0
38.236752 52.358852 -4.2721996 21 0 0
23.486498 21.672716 -4.5824656 9 0 0
23.659819 21.978367 -4.607471 9 0 0
23.918192 22.38225 -4.6445661 9 0 0
24.063253 22.676064 -4.6527605 10 0 0
24.209759 22.982235 -4.6617007 10 0 0
24.478643 23.425018 -4.6953773 10 0 0
36.217857 44.709373 -4.7001839 25 0 0
36.145481 44.318741 -4.731986 17 0 0
36.385349 44.296249 -4.8035631 9 0 0
36.054535 43.566959 -4.8083582 15 0 0
35.692303 42.824032 -4.8086939 21 0 0
34.711872 41.338684 -4.7131124 1 0 0
32.596588 33.367992 -4.9110489 21 0 0
32.465 32.967495 -4.9202414 20 0 0
32.196007 32.478203 -4.911562 20 0 0
31.773767 31.818163 -4.8769631 19 0 0
31.517153 31.319746 -4.8818598 19 0 0
31.515234 31.110807 -4.9046707 19 0 0
22.865416 20.038317 -4.5709338 34 0 0
33.412231 24.346756 -2.7024362 13 0 0
33.547443 24.25754 -2.7497039 15 0 0
33.848984 24.287149 -2.8036232 32 0 0
34.109695 24.285326 -2.8692179 37 0 0
34.187664 24.340839 -2.9346547 19 0 0
34.208469 24.545084 -2.9293752 31 0 0
33.747238 24.402008 -2.8829107 17 0 0
33.002182 27.760897 -2.4488449 10 0 0
32.928486 27.905632 -2.4131637 9 0 0
33.2411 21.943447 -4.5522208 88 0 0
33.461544 22.265486 -4.5580263 23 0 0
33.716587 22.61392 -4.5753207 40 0 0
33.848038 22.882397 -4.5539651 10 0 0
34.070465 23.215164 -4.5661707 21 0 0
34.529217 23.713533 -4.602272 13 0 0
34.429966 27.494921 -2.7180586 6 0 0
34.183949 27.494425 -2.6677704 7 0 0
34.030094 27.576702 -2.6329429 8 0 0
33.906658 27.68317 -2.6082242 9 0 0
33.625538 27.659662 -2.5562513 9 0 0
33.421192 27.697575 -2.5256119 15 0 0
33.263317 27.773018 -2.4910033 9 0 0
32.193775 24.560621 -2.4198978 8 0 0
32.301437 24.455982 -2.4638181 9 0 0
32.596943 24.492273 -2.5080652 22 0 0
32.748375 24.418781 -2.5557568 77 0 0
32.976604 24.401405 -2.5953243 18 0 0
33.25227 24.417286 -2.6605654 15 0 0
36.03297 40.456734 -4.9781451 1 0 0
35.33746 39.136196 -4.937963 20 0 0
34.639233 38.081371 -4.8843107 8 0 0
34.664261 37.842659 -4.9234142 7 0 0
33.877846 36.713074 -4.8453751 23 0 0
33.866413 36.431847 -4.8771935 23 0 0
36.591938 51.337902 -4.5079927 18 0 0
36.646126 51.795509 -4.4590087 9 0 0
37.559711 53.501587 -4.5137491 5 0 0
38.028965 54.574116 -4.5113606 20 0 0
38.258522 55.314182 -4.4789305 16 0 0
38.167114 55.595833 -4.408174 6 0 0
37.862152 55.587162 -4.3139396 12 0 0
32.033638 20.009068 -4.5304561 49 0 0
22.492073 24.988749 -4.6831594 10 0 0
22.260227 24.541002 -4.6682978 10 0 0
22.111191 24.214846 -4.6552024 9 0 0
22.059929 23.973192 -4.6598048 9 0 0
21.933853 23.669828 -4.6616812 10 0 0
21.858429 23.415701 -4.6616287 9 0 0
31.453291 30.812094 -4.9232616 19 0 0
31.121347 30.28533 -4.8939304 18 0 0
30.877964 29.808092 -4.8823223 18 0 0
30.793673 29.530071 -4.898746 18 0 0
30.420969 28.949255 -4.8662972 17 0 0
30.183802 28.513479 -4.85568 17 0 0
29.910686 28.048735 -4.8459625 17 0 0
29.807884 27.767139 -4.8504128 16 0 0
29.775122 27.533478 -4.8645229 16 0 0
29.436913 27.021257 -4.8355079 16 0 0
29.018064 26.450735 -4.7862792 15 0 0
29.07366 26.306961 -4.828135 15 0 0
28.793898 25.862514 -4.8001933 14 0 0
37.042793 43.432903 -4.8536839 10 0 0
35.871956 41.763935 -4.7585759 8 0 0
36.239876 41.880749 -4.8454232 26 0 0
36.359585 41.723858 -4.900331 26 0 0
36.390583 41.451702 -4.9422202 26 0 0
36.594276 41.391411 -5.0085573 10 0 0
36.028477 48.371136 -4.7362485 26 0 0
36.064365 48.773792 -4.6887603 19 0 0
36.427605 49.608318 -4.6925159 15 0 0
36.466244 50.062744 -4.6461186 10 0 0
36.261948 50.130749 -4.5760942 18 0 0
36.474545 50.834549 -4.5287151 11 0 0
33.611946 24.880611 -4.0561552 17 0 0
33.588898 24.6735 -4.0644622 18 0 0
33.535244 24.454323 -4.0841827 19 0 0
20.14563 34.268845 -1.4993154 11 0 0
33.609653 24.320395 -4.1189189 8 0 0
33.930027 24.363245 -4.1840243 24 0 0
20.450186 34.223972 -1.5873418 9 0 0
34.215836 24.378899 -4.2304406 27 0 0
33.878288 25.86445 -4.104115 37 0 0
33.933804 26.094826 -4.0690718 32 0 0
33.964226 26.118221 -4.0349956 28 0 0
33.924061 25.890026 -4.0339527 33 0 0
33.815792 25.611814 -4.0173588 28 0 0
33.795216 25.401848 -4.0410547 29 0 0
33.706867 25.142632 -4.0416641 35 0 0
33.533371 24.488832 -4.2470794 21 0 0
33.67477 24.763735 -4.2458806 20 0 0
33.587574 24.898888 -4.1953082 9 0 0
33.890507 25.298031 -4.206327 9 0 0
33.86866 25.475559 -4.1703615 54 0 0
33.845879 25.643898 -4.1411409 60 0 0
21.231911 21.628389 -4.6648636 9 0 0
21.064474 21.315968 -4.6392956 9 0 0
20.947121 21.027708 -4.6319599 11 0 0
20.907932 20.842352 -4.6441312 9 0 0
21.686014 23.060976 -4.6463032 9 0 0
21.592974 22.802021 -4.6428866 10 0 0
21.549021 22.589195 -4.6601548 14 0 0
21.494184 22.374811 -4.6645975 9 0 0
21.342039 22.069473 -4.6430721 9 0 0
21.291922 21.841511 -4.6511822 14 0 0
34.752659 24.045938 -4.5984282 9 0 0
34.993778 24.402918 -4.6044698 25 0 0
34.561638 24.290325 -4.5220022 9 0 0
34.21122 24.231861 -4.4581428 7 0 0
20.491919 34.321014 -1.7173054 9 0 0
34.005165 24.273563 -4.3912406 8 0 0
33.850647 24.342081 -4.3454494 7 0 0
20.161833 34.323826 -1.6127461 18 0 0
33.590485 24.342268 -4.2942028 9 0 0
32.29179 20.335224 -4.5369439 41 0 0
42.653053 63.570263 -4.7358685 1 0 0
32.256195 20.462505 -4.5144091 82 0 0
42.249176 63.445877 -4.608757 1 0 0
32.528442 20.818808 -4.5300012 103 0 0
42.641201 64.546135 -4.5824456 7 0 0
32.783279 21.135481 -4.5476227 70 0 0
42.276356 64.482155 -4.4728727 1 0 0
32.862335 21.357363 -4.5416856 69 0 0
33.119541 21.697596 -4.5531793 89 0 0
31.732502 47.616882 -5.1169643 25 0 0
31.48959 46.87912 -5.1196074 21 0 0
23.432901 27.349295 -4.7350783 11 0 0
23.278337 26.97773 -4.7290812 10 0 0
23.123444 26.600479 -4.7153401 10 0 0
22.928391 26.190889 -4.7001891 10 0 0
22.821064 25.876312 -4.6955094 10 0 0
22.619474 25.485886 -4.6738844 10 0 0
22.619226 25.298229 -4.7029271 10 0 0
79.911827 30.275887 0.16406173 37 0 0
79.832954 30.58107 0.19397049 33 0 0
79.888077 30.938429 0.23923546 24 0 0
79.620415 31.170843 0.26862144 8 0 0
79.599319 31.483463 0.31373969 17 0 0
79.503769 31.750961 0.31377634 25 0 0
79.315247 32.045441 0.358329 20 0 0
79.447098 32.437939 0.38941476 17 0 0
69.839317 28.785686 0.38234067 10 0 0
69.506165 28.97533 0.40743726 25 0 0
69.316841 29.180834 0.4463025 22 0 0
69.273605 29.461994 0.48613364 1 0 0
32.329758 27.089447 -4.7907538 18 0 0
32.084003 26.702934 -4.77809 17 0 0
31.861477 26.301954 -4.7730255 17 0 0
31.618202 25.925308 -4.7670712 17 0 0
31.578819 25.700037 -4.7829165 16 0 0
31.278124 25.265316 -4.7731247 16 0 0
31.073816 24.894819 -4.7618976 15 0 0
30.831322 24.515556 -4.7458048 15 0 0
30.811152 24.333181 -4.7719698 15 0 0
30.411585 23.845728 -4.7382379 14 0 0
30.197874 23.499941 -4.7253876 13 0 0
30.084433 23.218359 -4.7266855 69 0 0
29.968317 22.970577 -4.7366071 34 0 0
38.729309 37.296093 -5.1109433 25 0 0
36.796898 34.409843 -4.9841003 10 0 0
36.654099 34.037254 -5.0015345 23 0 0
26.422064 33.891796 -4.9646807 12 0 0
26.137724 33.286789 -4.9417949 18 0 0
26.083656 32.980274 -4.9618559 13 0 0
25.910259 32.515377 -4.9503179 17 0 0
25.44496 31.703762 -4.8906236 16 0 0
25.28594 31.281311 -4.8960271 16 0 0
24.945353 30.629658 -4.8572946 15 0 0
40.05846 40.282818 -5.0601711 27 0 0
40.206219 40.136108 -5.1101928 27 0 0
40.409363 40.04427 -5.1773863 20 0 0
40.530159 39.884533 -5.2450495 9 0 0
38.43277 37.544277 -5.0030713 1 0 0
38.86359 37.687752 -5.0887947 24 0 0
69.840591 41.385918 0.70846373 7 0 0
97.821846 57.483574 0.91094553 24 0 0
97.9748 57.114296 0.85112453 1 0 0
80.463539 28.193697 -0.044642027 29 0 0
80.251778 28.418646 -0.01485886 23 0 0
69.246262 66.01149 -1.0686778 15 0 0
80.175323 28.722712 0.014864096 33 0 0
69.012329 66.249847 -1.0018356 22 0 0
69.91069 25.321117 0.051909573 16 0 0
69.676552 25.525578 0.077707283 28 0 0
69.587212 25.78252 0.077712514 29 0 0
69.482826 26.033869 0.11655303 26 0 0
28.491163 20.700041 -4.6676774 36 0 0
28.168896 20.308575 -4.6396637 141 0 0
27.871691 20.257402 -4.6647139 50 0 0
27.864491 20.408665 -4.6453066 52 0 0
29.773293 22.64834 -4.7191601 59 0 0
29.589558 22.337843 -4.7296281 25 0 0
29.548849 22.137554 -4.7428684 40 0 0
29.211941 21.718443 -4.714736 22 0 0
28.913658 21.332569 -4.6794515 37 0 0
28.554375 20.906298 -4.659132 31 0 0
33.838173 29.633516 -4.8466406 20 0 0
33.673248 29.271709 -4.8470106 19 0 0
33.224567 28.688799 -4.8152227 19 0 0
32.722408 28.036592 -4.7800941 18 0 0
32.724979 27.851141 -4.8049164 18 0 0
32.609299 27.52774 -4.8093786 18 0 0
36.288258 33.450676 -4.9870567 4 0 0
36.190876 33.116379 -5.0002098 22 0 0
35.836868 32.551918 -4.9860129 22 0 0
35.675674 32.167648 -4.9895182 22 0 0
35.472637 31.760786 -4.9959903 21 0 0
35.0014 31.108484 -4.9631124 21 0 0
34.720459 30.631748 -4.9481864 21 0 0
69.224861 42.737457 0.93717915 10 0 0
69.191696 42.334305 0.87778568 30 0 0
69.404732 42.148979 0.83618903 37 0 0
69.539062 41.899002 0.779356 27 0 0
69.720032 41.627476 0.72281069 15 0 0
37.122726 45.810043 -4.3713737 5 0 0
36.981071 45.962311 -4.3114471 19 0 0
36.958313 46.280312 -4.2661924 18 0 0
36.87767 46.51136 -4.1922989 28 0 0
37.069504 47.090027 -4.1697006 13 0 0
37.896992 48.505936 -4.2287741 11 0 0
69.292465 50.751572 2.0541189 5 0 0
39.122711 23.572399 -4.5348616 10 0 0
39.123592 23.75012 -4.5118022 10 0 0
40.554081 25.232872 -4.6074948 11 0 0
40.894104 25.652824 -4.6227641 11 0 0
35.910252 24.0126 -3.847806 25 0 0
35.841377 24.148018 -3.811424 19 0 0
35.5746 24.158325 -3.7470675 31 0 0
35.225067 24.092026 -3.6886282 8 0 0
35.06123 24.169065 -3.6432867 11 0 0
35.09026 24.370203 -3.6100576 10 0 0
37.758095 48.677444 -4.1565967 5 0 0
37.11948 48.218033 -4.0417132 29 0 0
37.381107 48.910152 -4.0132308 29 0 0
36.761845 20.184937 -4.5041785 21 0 0
37.219189 49.070026 -3.9503644 29 0 0
37.116581 20.557123 -4.5268826 25 0 0
37.518826 49.82534 -3.9240935 19 0 0
37.268726 20.803186 -4.51616 33 0 0
37.523808 50.195629 -3.8660526 5 0 0
37.421593 21.085985 -4.5145841 30 0 0
37.29142 50.267906 -3.7952771 3 0 0
70.204681 48.757191 1.3129038 10 0 0
69.959404 48.967907 1.3563876 5 0 0
43.681953 39.636173 -5.2226982 21 0 0
43.177757 38.863785 -5.2050381 27 0 0
41.639385 36.956181 -5.0765314 26 0 0
40.96616 36.078423 -5.0351739 22 0 0
40.886745 35.768436 -5.0681834 8 0 0
38.107307 32.36311 -4.8492365 23 0 0
37.868576 31.922205 -4.8475685 23 0 0
37.836399 31.658588 -4.8807263 22 0 0
46.986588 25.895208 -3.1122181 7 0 0
46.757534 25.992853 -3.0752313 12 0 0
46.675945 26.1719 -3.0574129 15 0 0
47.385765 26.787746 -3.0718901 2 0 0
40.766479 23.243361 -2.6154203 9 0 0
40.846653 23.487867 -2.6013227 8 0 0
40.684883 23.593689 -2.547112 1 0 0
35.432625 24.125216 -1.7066908 9 0 0
35.221931 24.162134 -1.6557965 13 0 0
34.973801 24.180902 -1.6185594 13 0 0
34.828732 24.251703 -1.5858877 20 0 0
34.552368 24.247791 -1.5478302 10 0 0
34.358662 24.291296 -1.4988198 16 0 0
36.934845 23.802885 -1.9799531 30 0 0
36.773087 23.880722 -1.9450662 15 0 0
36.47747 23.879284 -1.90355 14 0 0
36.303249 23.955769 -1.8686053 10 0 0
36.017155 23.956932 -1.8130063 9 0 0
35.805702 23.996988 -1.7764243 9 0 0
35.561214 24.02248 -1.7386408 9 0 0
39.173588 24.052652 -2.2804031 8 0 0
38.33493 23.73163 -2.2050786 10 0 0
37.952316 23.678413 -2.1565077 20 0 0
37.613506 23.658995 -2.0955305 27 0 0
37.481369 23.768053 -2.0619555 26 0 0
37.226871 23.798426 -2.0218282 22 0 0
65.934662 82.831871 -3.8450787 1 0 0
45.538643 23.807026 -3.1879282 23 0 0
65.615196 82.993866 -3.7500317 1 0 0
45.514347 24.007147 -3.1653197 14 0 0
45.019203 23.957296 -3.0833681 13 0 0
45.596516 24.479383 -3.1018364 14 0 0
45.633778 24.932028 -3.0529666 14 0 0
39.942589 43.103886 -3.8310773 3 0 0
40.022648 42.874004 -3.8853431 1 0 0
40.207935 42.757244 -3.9395385 4 0 0
40.336456 42.595001 -4.0095377 7 0 0
40.596004 42.585331 -4.0625463 8 0 0
41.35413 43.033386 -4.1943636 3 0 0
41.390015 42.785828 -4.2357984 4 0 0
41.30719 42.373417 -4.2729282 8 0 0
41.347786 42.105202 -4.3129048 9 0 0
41.558781 42.010944 -4.3706713 10 0 0
41.156689 41.343876 -4.3658924 23 0 0
42.737846 20.019871 -3.7723074 48 0 0
45.251404 22.227224 -3.3220913 26 0 0
64.908096 78.043503 -4.3254333 9 0 0
45.093021 22.335344 -3.3070629 58 0 0
64.316437 77.911194 -4.1813588 1 0 0
45.300068 22.654924 -3.2753372 30 0 0
45.534534 22.981199 -3.2715406 37 0 0
45.701023 23.275787 -3.2536588 27 0 0
65.615868 81.231567 -4.0297513 1 0 0
45.54863 23.38872 -3.239341 13 0 0
65.270142 81.353996 -3.9339128 1 0 0
45.517269 23.583834 -3.2162879 22 0 0
43.06395 41.095325 -4.8729992 28 0 0
43.269062 40.989101 -4.9315405 11 0 0
42.650478 40.135597 -4.8973041 28 0 0
43.675232 40.799129 -5.0502915 21 0 0
44.401142 41.144707 -5.1789398 20 0 0
43.470127 40.000847 -5.1163497 28 0 0
43.495621 39.758739 -5.1659832 28 0 0
63.417446 72.466682 -4.7602725 1 0 0
64.117683 74.333488 -4.6293869 16 0 0
64.340645 75.14711 -4.5961232 18 0 0
64.611603 75.998962 -4.5297208 1 0 0
64.689507 76.658188 -4.4671392 6 0 0
64.555901 77.071213 -4.3543253 19 0 0
40.072655 23.416569 -2.4973822 10 0 0
39.923893 23.52636 -2.452914 10 0 0
40.255352 23.930397 -2.446121 1 0 0
39.620346 23.731075 -2.3799744 8 0 0
39.295143 23.732416 -2.3335166 6 0 0
39.179081 23.858732 -2.3077214 5 0 0
38.019279 23.683332 -0.82095695 12 0 0
37.843708 23.757723 -0.78774673 10 0 0
37.697578 23.859056 -0.76315337 10 0 0
38.866241 24.798691 -0.75645113 9 0 0
38.931305 25.041458 -0.71101218 10 0 0
39.112564 25.351496 -0.68338704 10 0 0
69.138046 50.657013 0.044877648 2 0 0
69.023323 50.203621 0.014896384 19 0 0
39.295528 27.098049 -0.43322319 1 0 0
70.032982 48.710449 -0.68490517 24 0 0
70.072479 49.065281 -0.62707198 2 0 0
39.417282 25.754662 -0.66569704 9 0 0
39.523418 26.031208 -0.63605034 10 0 0
39.770267 26.393295 -0.59150922 10 0 0
39.868908 26.66976 -0.56093425 10 0 0
39.870701 26.883001 -0.52876651 9 0 0
39.553032 26.880213 -0.49246648 8 0 0
39.364349 26.953333 -0.45797607 6 0 0
69.786713 53.105503 0.18366784 1 0 0
69.73085 53.062992 0.25998822 1 0 0
70.152328 52.97884 0.2454907 1 0 0
20.158934 34.264088 -2.7589803 8 0 0
65.755775 36.809929 -2.0259593 29 0 0
66.739494 37.990387 -1.9707038 29 0 0
67.078384 38.509495 -1.9038171 12 0 0
66.8722 38.717693 -1.8884852 29 0 0
67.136726 39.200108 -1.8456938 27 0 0
67.441177 39.662495 -1.789166 25 0 0
67.466797 40.042927 -1.7666955 31 0 0
67.64711 40.485962 -1.6926936 27 0 0
67.760094 40.891632 -1.6578019 30 0 0
38.438068 23.554878 -0.88921726 22 0 0
38.190388 23.596073 -0.85413003 19 0 0
31.328575 46.289513 -5.1359854 15 0 0
30.874962 45.277977 -5.1032071 14 0 0
30.728666 44.693771 -5.1270208 3 0 0
29.447968 42.212669 -4.9831338 22 0 0
29.314068 41.709702 -4.9986839 15 0 0
29.282408 41.357029 -5.0490136 5 0 0
23.903702 26.315922 -4.6930795 10 0 0
23.907949 26.505913 -4.6740236 10 0 0
24.333717 27.177574 -4.731379 11 0 0
24.451361 27.511202 -4.7346406 12 0 0
24.640585 27.900137 -4.7486095 12 0 0
24.976337 28.490084 -4.7930889 13 0 0
24.984255 28.700605 -4.7733245 13 0 0
27.326855 36.608421 -4.9466243 20 0 0
27.08927 36.053303 -4.9308748 20 0 0
26.96785 35.63203 -4.9492536 19 0 0
26.757103 35.08559 -4.9415193 19 0 0
26.695173 34.752136 -4.9463744 12 0 0
26.53167 34.266125 -4.9606161 18 0 0
28.717707 40.231026 -4.98597 22 0 0
28.605267 39.808441 -5.0052161 18 0 0
28.263653 39.030365 -4.971374 22 0 0
28.044428 38.444416 -4.9679437 15 0 0
27.97168 38.064899 -4.9898357 9 0 0
27.60379 37.290768 -4.9582815 21 0 0
24.746782 30.170143 -4.8395796 15 0 0
24.568975 29.730471 -4.8313165 14 0 0
24.335079 29.238987 -4.8191814 13 0 0
24.182043 28.849699 -4.8089619 13 0 0
23.87748 28.275196 -4.7737136 12 0 0
23.724903 27.896391 -4.7692046 11 0 0
69.155647 50.318325 -0.29853797 24 0 0
69.048294 50.609776 -0.23906791 5 0 0
70.000923 52.864494 0.12248018 1 0 0
31.451527 36.747017 -4.8363752 22 0 0
31.680769 37.277473 -4.839869 17 0 0
31.82312 37.724304 -4.8305221 18 0 0
27.944523 28.47629 -4.7998462 16 0 0
28.109631 28.855343 -4.8106799 16 0 0
28.195196 29.146036 -4.7996392 16 0 0
28.304907 29.474865 -4.7932854 16 0 0
28.604513 30.006222 -4.8186092 17 0 0
28.591831 30.20332 -4.7900677 17 0 0
26.878069 26.037563 -4.7739186 12 0 0
26.923437 26.282658 -4.7598295 13 0 0
27.22891 26.757774 -4.7888832 13 0 0
27.334602 27.05929 -4.7907929 14 0 0
27.469032 27.382872 -4.7829628 15 0 0
27.680187 27.796377 -4.7957377 15 0 0
27.717823 28.058544 -4.7868042 15 0 0
28.821152 30.669947 -4.8026338 17 0 0
28.85091 30.92799 -4.7815866 18 0 0
29.141241 31.458664 -4.8024001 18 0 0
29.264593 31.825006 -4.7960811 18 0 0
29.375618 32.181686 -4.7873893 19 0 0
29.5669 32.619186 -4.7904353 19 0 0
29.61009 32.908428 -4.7700415 19 0 0
29.73023 33.274822 -4.7608123 19 0 0
29.90687 33.696762 -4.759253 20 0 0
30.078941 34.129871 -4.749373 20 0 0
30.471033 34.831306 -4.7824225 21 0 0
30.754097 35.415974 -4.7975512 21 0 0
31.101336 36.069408 -4.8209405 21 0 0
34.149799 43.867348 -4.7464318 9 0 0
35.056736 45.358116 -4.8339972 6 0 0
35.115211 45.779575 -4.7941809 13 0 0
35.164524 46.14333 -4.7595153 13 0 0
35.756985 47.296364 -4.7913299 21 0 0
35.978237 47.953365 -4.7813115 16 0 0
25.896427 24.022367 -4.7067914 10 0 0
26.245844 24.517502 -4.7603083 11 0 0
26.449579 24.881279 -4.7678466 11 0 0
26.631731 25.237257 -4.7782445 12 0 0
26.681341 25.47053 -4.7776761 12 0 0
26.758806 25.732592 -4.7754674 12 0 0
33.258717 40.590832 -4.9050279 11 0 0
33.25201 40.872845 -4.8693972 24 0 0
33.350227 41.30188 -4.8311696 22 0 0
33.504921 41.791077 -4.818131 10 0 0
33.667107 42.279896 -4.8045387 10 0 0
33.816902 42.804268 -4.7821693 14 0 0
34.008533 43.357105 -4.7724986 14 0 0
44.344448 42.302498 -4.1350546 4 0 0
46.870758 45.373356 -4.2757292 1 0 0
47.303349 46.129181 -4.2726841 7 0 0
47.110455 46.230709 -4.2220874 16 0 0
47.172398 46.66468 -4.1746278 5 0 0
38.863792 39.978474 -5.0643339 22 0 0
38.675629 40.091774 -5.0010262 17 0 0
38.80011 40.516964 -4.9869447 22 0 0
38.400974 40.395527 -4.8958192 26 0 0
38.379166 40.641628 -4.8610406 26 0 0
38.220654 40.757847 -4.7901807 26 0 0
21.45735 20.142748 -4.5823679 21 0 0
21.389866 20.227392 -4.5574479 11 0 0
21.545023 20.53857 -4.5708055 14 0 0
35.480309 24.825129 -3.3851979 31 0 0
34.506104 24.522209 -3.2275536 30 0 0
34.94133 25.006315 -3.2458322 34 0 0
34.957687 25.203005 -3.21012 25 0 0
34.79472 25.279842 -3.1659038 28 0 0
33.952049 24.858246 -3.0531993 34 0 0
39.902092 21.692127 -4.3491826 10 0 0
37.844433 49.462673 -3.5364959 1 0 0
40.021366 21.947386 -4.3387661 10 0 0
40.207394 22.22315 -4.342628 10 0 0
40.293533 22.463953 -4.3283033 10 0 0
39.943485 53.374134 -3.5521264 1 0 0
40.604454 22.8421 -4.3382821 15 0 0
40.843529 23.174074 -4.3398051 10 0 0
37.21743 43.637665 -4.6951318 22 0 0
36.962788 43.646763 -4.6018138 25 0 0
36.485806 43.435883 -4.5043182 24 0 0
36.590462 43.854946 -4.4749851 25 0 0
36.656841 44.279026 -4.4433012 20 0 0
36.819889 44.777443 -4.4199734 23 0 0
37.253265 45.628216 -4.4187126 10 0 0
58.824287 84.103477 -4.4451938 1 0 0
38.829769 23.543941 -3.9329324 9 0 0
58.473148 84.225906 -4.3332801 1 0 0
38.520859 23.550161 -3.8706677 19 0 0
58.227104 84.499611 -4.2112885 1 0 0
38.500198 23.731817 -3.8455007 22 0 0
38.58868 23.972641 -3.8307309 25 0 0
39.229122 24.570232 -3.8706784 28 0 0
65.839348 97.757988 -4.424798 10 0 0
37.910805 23.938442 -3.7177157 22 0 0
41.17514 42.877079 -3.9171419 3 0 0
49.819004 53.014751 -4.6025095 17 0 0
49.654854 53.229687 -4.5288076 7 0 0
36.120327 23.943806 -3.8904817 10 0 0
36.537842 24.028271 -3.964412 24 0 0
36.662033 23.917919 -3.9837549 10 0 0
34.664822 24.27257 -3.5907285 9 0 0
35.057808 24.356737 -3.6596878 10 0 0
35.03968 24.154209 -3.6560118 10 0 0
35.24456 24.105358 -3.7056863 9 0 0
35.652016 24.192717 -3.769486 29 0 0
35.845592 24.141764 -3.811424 30 0 0
35.947617 24.019432 -3.8509114 27 0 0
25.524549 28.041281 -4.8305731 13 0 0
25.206867 27.316422 -4.8142843 12 0 0
24.918556 26.806175 -4.779398 12 0 0
24.679602 26.336319 -4.7581053 11 0 0
24.448776 25.926273 -4.7421784 10 0 0
37.083496 41.621605 -4.8966947 22 0 0
37.48188 42.380463 -4.9100771 9 0 0
37.220093 42.39658 -4.8564267 26 0 0
36.864548 42.318226 -4.7621331 26 0 0
37.608662 43.493259 -4.8181763 12 0 0
37.58606 43.744133 -4.7619138 15 0 0
46.991444 46.420815 -4.1673188 7 0 0
47.128262 46.248184 -4.2236834 10 0 0
46.772186 45.579365 -4.234715 4 0 0
46.932663 45.401566 -4.2913775 1 0 0
41.148849 26.023277 -4.6108646 11 0 0
36.614994 23.905457 -3.9949408 9 0 0
36.500912 24.022242 -3.9536254 15 0 0
36.07877 23.934389 -3.886905 9 0 0
41.083733 41.559734 -4.0659351 1 0 0
41.478638 42.267952 -4.0683956 7 0 0
41.622276 42.726463 -4.0350628 3 0 0
38.206085 21.686441 -4.5321651 10 0 0
38.022507 21.398359 -4.5318398 10 0 0
37.793797 50.172276 -3.8969069 9 0 0
37.746151 21.061041 -4.5201755 15 0 0
37.484924 49.366673 -3.932375 28 0 0
37.702148 20.855652 -4.543736 34 0 0
37.733738 49.335831 -3.9948099 29 0 0
37.507328 20.568708 -4.5186901 36 0 0
37.834106 49.128586 -4.0425053 9 0 0
37.299431 20.277233 -4.5221252 27 0 0
41.180603 25.812515 -4.6113334 28 0 0
41.263737 25.654446 -4.644311 11 0 0
40.718975 25.12892 -4.607305 11 0 0
39.207703 23.979471 -4.4577641 10 0 0
39.021019 23.669218 -4.450768 10 0 0
21.116631 22.494793 -4.6716356 16 0 0
21.028591 22.23711 -4.6723518 9 0 0
20.983418 22.03476 -4.6778078 9 0 0
20.89246 21.778845 -4.6774545 14 0 0
20.817108 21.541693 -4.6803622 13 0 0
29.69079 20.132421 -4.6272335 55 0 0
29.668598 20.276506 -4.6098228 66 0 0
33.775379 24.783266 -3.5178165 26 0 0
33.858433 25.026497 -3.513344 14 0 0
34.058125 25.367655 -3.483988 35 0 0
33.887619 25.434298 -3.4388375 25 0 0
33.65929 25.428627 -3.3792934 28 0 0
33.389721 25.417738 -3.324708 18 0 0
33.422153 25.636452 -3.2854908 19 0 0
33.369549 25.586851 -3.2429643 20 0 0
33.351124 25.37916 -3.2468283 24 0 0
33.530075 25.321815 -3.2773256 30 0 0
33.912457 25.415947 -3.3278995 24 0 0
34.079971 25.346954 -3.3575754 25 0 0
34.209976 25.258656 -3.3990209 28 0 0
22.092093 21.170757 -4.5511236 26 0 0
22.233454 21.157837 -4.6033354 19 0 0
22.253424 21.021955 -4.6242714 18 0 0
22.085197 20.710384 -4.6059427 10 0 0
21.950626 20.433508 -4.5997219 17 0 0
21.949324 20.289747 -4.6166229 11 0 0
39.185474 23.591572 -4.5008764 8 0 0
39.29528 23.461884 -4.5277777 9 0 0
39.172783 23.194414 -4.535933 23 0 0
39.164139 22.977465 -4.5562325 17 0 0
38.876244 22.635599 -4.5457063 30 0 0
38.590015 22.279957 -4.5340886 14 0 0
38.426929 21.998405 -4.5366573 10 0 0
33.765713 24.739927 -3.3752596 25 0 0
33.861828 24.620121 -3.4125996 26 0 0
33.800861 24.386917 -3.419394 13 0 0
33.965153 24.334599 -3.449857 8 0 0
34.218643 24.326914 -3.4960372 8 0 0
34.378193 24.260136 -3.5406406 7 0 0
30.932899 40.138195 -5.0937338 23 0 0
30.380909 39.124512 -5.0315928 6 0 0
29.848547 38.163197 -4.981143 2 0 0
29.663349 37.654808 -4.9959197 20 0 0
65.294373 97.719925 -4.2889709 10 0 0
37.715702 24.009048 -3.6757615 15 0 0
37.462368 24.04118 -3.6205301 22 0 0
37.285099 24.120813 -3.5651114 12 0 0
37.014862 24.129686 -3.5162599 9 0 0
36.524189 23.982784 -3.4464884 32 0 0
36.533512 24.199348 -3.4257252 32 0 0
33.566929 24.36096 -2.653008 10 0 0
33.869457 24.391495 -2.6917791 21 0 0
33.993443 24.301037 -2.72417 11 0 0
34.226826 24.278812 -2.772501 24 0 0
34.538368 24.310015 -2.8201175 22 0 0
34.674286 24.216118 -2.8610237 21 0 0
23.153177 23.177437 -4.6567044 9 0 0
22.866201 22.707117 -4.6207886 9 0 0
22.808144 22.499735 -4.6224904 10 0 0
22.642237 22.165176 -4.6167555 9 0 0
22.609863 21.971781 -4.6274247 9 0 0
22.401958 21.610662 -4.6019354 17 0 0
28.828838 34.773872 -5.0825877 4 0 0
27.628559 32.60154 -4.952055 18 0 0
27.171392 31.836111 -4.8945904 17 0 0
27.245129 31.686569 -4.9386797 15 0 0
42.575283 36.94495 -5.0408111 14 0 0
42.51651 36.351051 -5.100595 5 0 0
41.610367 35.313137 -5.0147462 10 0 0
41.265797 34.761341 -5.0338135 25 0 0
41.042694 34.31702 -5.0288987 22 0 0
40.555107 33.657543 -5.0096898 23 0 0
26.780169 30.926775 -4.8782439 17 0 0
26.755604 30.670527 -4.9036994 16 0 0
26.439787 30.095778 -4.8690982 16 0 0
26.305849 29.722897 -4.8735547 16 0 0
26.123583 29.320467 -4.8634958 15 0 0
26.194704 29.194475 -4.9133506 13 0 0
25.807434 28.561655 -4.8629293 14 0 0
29.538757 37.215237 -4.9938474 21 0 0
29.496454 36.896709 -5.0315857 12 0 0
29.325132 36.407997 -5.0373354 16 0 0
29.13868 35.919136 -5.032742 19 0 0
29.159283 35.676472 -5.0706506 9 0 0
28.844408 35.040878 -5.0427036 8 0 0
34.547768 27.579121 -1.9764512 14 0 0
34.760509 27.540964 -2.0293705 17 0 0
34.930767 27.468063 -2.064508 18 0 0
35.140305 27.424997 -2.1021254 15 0 0
35.393406 27.414385 -2.1425662 22 0 0
35.574688 27.346775 -2.2024074 18 0 0
35.836235 27.339453 -2.2439256 21 0 0
33.186245 24.467009 -2.7168496 11 0 0
32.953674 24.482483 -2.6763546 14 0 0
32.726509 24.50038 -2.615026 38 0 0
32.579205 24.568027 -2.5671904 25 0 0
32.289028 24.51759 -2.5080962 9 0 0
32.137604 24.588833 -2.460783 9 0 0
32.119801 24.566326 -2.4236743 9 0 0
24.367685 25.633347 -4.7504349 10 0 0
24.230854 25.311878 -4.7438674 10 0 0
23.845428 24.727188 -4.687273 10 0 0
23.567924 24.277782 -4.658988 10 0 0
23.46417 23.985931 -4.6500778 10 0 0
23.317213 23.678118 -4.6467547 10 0 0
23.180155 23.36701 -4.6433482 9 0 0
36.252831 24.186775 -3.3609951 34 0 0
35.847656 24.124971 -3.2944539 9 0 0
35.744488 24.237249 -3.262404 9 0 0
35.703033 24.40064 -3.2288101 18 0 0
35.924076 24.726875 -3.2179298 32 0 0
35.421665 24.572886 -3.1431489 27 0 0
35.378113 24.735231 -3.1170123 55 0 0
36.693047 23.856068 -2.7075336 39 0 0
36.892273 23.793678 -2.7388556 45 0 0
37.170151 23.780447 -2.7993877 37 0 0
37.407906 23.739779 -2.8262496 149 0 0
37.585976 23.669151 -2.8645806 14 0 0
38.026237 23.752203 -2.9229124 28 0 0
36.57357 23.996941 -3.1969583 37 0 0
37.172951 24.195776 -3.280493 19 0 0
37.340008 24.110138 -3.3030152 26 0 0
37.58152 24.071369 -3.3478835 16 0 0
37.785343 24.007071 -3.3896103 25 0 0
38.153694 24.063877 -3.4471505 10 0 0
41.22551 34.482101 -4.9195814 25 0 0
42.263767 35.880344 -4.9966831 23 0 0
42.94899 36.733791 -5.0438623 7 0 0
42.624954 36.728008 -4.9720955 13 0 0
42.455051 36.853607 -4.9284463 23 0 0
44.477104 39.184254 -5.102571 5 0 0
44.168827 39.201138 -5.0317397 23 0 0
44.02383 39.348026 -4.9789414 14 0 0
44.571262 40.132149 -5.0047479 12 0 0
39.709927 23.437637 -3.7747898 15 0 0
58.490635 81.069435 -4.3122139 1 0 0
59.01524 81.108368 -4.4496326 1 0 0
42.700562 24.603521 -4.1382875 12 0 0
42.428883 24.24028 -4.1376762 18 0 0
42.654263 24.162113 -4.1768451 32 0 0
29.513086 24.053135 -4.7220359 15 0 0
29.771791 24.446125 -4.7572532 14 0 0
29.715775 24.583027 -4.7285023 14 0 0
29.834518 24.866005 -4.7274694 14 0 0
29.959206 25.156584 -4.7271643 15 0 0
30.245159 25.5863 -4.7519765 15 0 0
29.496794 22.300158 -4.6976123 42 0 0
29.806139 22.706194 -4.7135911 63 0 0
29.934559 22.977898 -4.713737 32 0 0
30.098169 23.270901 -4.7050633 39 0 0
30.411566 23.51321 -4.7199993 52 0 0
30.358564 23.28653 -4.7114191 40 0 0
30.295652 23.062395 -4.7087455 45 0 0
28.486767 22.017075 -4.6696405 29 0 0
28.549322 22.241051 -4.6681709 11 0 0
28.712681 22.537905 -4.6759777 11 0 0
28.958572 22.902948 -4.7100134 17 0 0
29.06773 23.162962 -4.7085838 19 0 0
29.279823 23.507948 -4.7235756 24 0 0
29.358673 23.748743 -4.716836 13 0 0
31.180618 27.771156 -4.7573647 17 0 0
31.458899 28.226454 -4.7782164 17 0 0
31.460386 28.416668 -4.7552648 17 0 0
31.825867 28.959309 -4.7884989 18 0 0
32.037643 29.36738 -4.7981324 18 0 0
32.221943 29.754383 -4.7955518 19 0 0
63.613804 69.034256 -4.7554832 6 0 0
44.709869 42.32439 -4.2187142 6 0 0
44.860287 41.847534 -4.3114386 4 0 0
48.024075 43.821274 -4.7399921 31 0 0
48.033245 43.523342 -4.7827425 14 0 0
65.419334 77.991364 -3.8927994 24 0 0
49.939053 24.486507 -3.2654259 8 0 0
65.570312 77.591988 -3.973619 13 0 0
65.317146 76.720261 -4.0468898 5 0 0
64.844017 74.568214 -4.2454057 12 0 0
63.925224 72.944092 -4.2686448 6 0 0
27.859638 20.569935 -4.6391711 85 0 0
27.988792 20.824232 -4.6547637 78 0 0
28.057642 21.03566 -4.6540895 33 0 0
28.12137 21.244888 -4.6525087 37 0 0
28.081388 21.376799 -4.6337605 23 0 0
28.159479 21.599722 -4.6281772 10 0 0
63.249439 34.80043 -3.6823101 2 0 0
44.770996 24.227787 -2.6500559 8 0 0
44.936665 24.084732 -2.6898093 12 0 0
45.190517 24.007994 -2.7355447 11 0 0
64.255272 72.780807 -4.3747125 1 0 0
63.743061 71.694656 -4.4066658 19 0 0
63.920719 71.416145 -4.5031362 18 0 0
63.877056 70.892876 -4.5669355 19 0 0
63.487843 69.406326 -4.6827593 15 0 0
64.56884 35.204071 -2.9151936 23 0 0
64.419189 34.816795 -2.9410582 24 0 0
64.378365 34.519379 -2.985034 17 0 0
64.444435 34.222443 -3.0199735 10 0 0
64.094543 33.736053 -3.0484171 21 0 0
63.84153 33.332993 -3.0688863 20 0 0
63.913036 33.072781 -3.1042252 18 0 0
33.263412 25.083988 -4.6951494 34 0 0
33.137703 24.799191 -4.693809 34 0 0
32.850185 24.396704 -4.6765575 33 0 0
32.628201 24.046795 -4.6682138 32 0 0
32.405437 23.699829 -4.645185 40 0 0
20.102535 34.277649 -1.943488 23 0 0
32.223511 23.385984 -4.6420026 110 0 0
32.221088 23.204403 -4.6644959 12 0 0
32.702183 24.858311 -4.6947255 16 0 0
33.016396 25.288628 -4.7163458 9 0 0
33.396683 25.765368 -4.7312989 25 0 0
33.738308 26.028929 -4.7420464 36 0 0
33.674347 25.783255 -4.7347307 40 0 0
33.469925 25.432688 -4.7151356 58 0 0
64.601883 70.599472 -3.8937292 1 0 0
64.518547 70.040619 -3.9579279 11 0 0
33.7882 24.828981 -3.550437 22 0 0
33.722996 24.591232 -3.5781147 24 0 0
33.714012 24.39591 -3.5969186 22 0 0
33.775143 24.260965 -3.6455746 9 0 0
63.036636 72.082291 -5.1357498 7 0 0
42.688347 20.014856 -3.5367656 10 0 0
42.564259 20.129122 -3.5154681 11 0 0
63.661221 74.406136 -4.9777288 6 0 0
43.6968 21.076836 -3.5626719 11 0 0
43.901882 21.355497 -3.5594482 26 0 0
33.638515 26.055115 -3.341208 28 0 0
33.454231 25.735334 -3.3440585 30 0 0
33.411304 25.507929 -3.3673155 24 0 0
33.545914 25.416624 -3.4084368 22 0 0
33.739529 25.369209 -3.4631381 32 0 0
33.941669 25.326998 -3.5115433 30 0 0
34.207893 25.321753 -3.5738807 21 0 0
43.743214 41.452755 -4.6688366 25 0 0
43.900043 41.878559 -4.6577635 29 0 0
43.591324 41.919571 -4.5791259 29 0 0
43.414608 42.056988 -4.534286 22 0 0
43.666538 42.597515 -4.5225692 5 0 0
43.548485 42.794979 -4.4729862 18 0 0
43.656364 43.21666 -4.4464145 9 0 0
36.539169 23.96525 -2.9253457 32 0 0
37.080818 24.126596 -2.992635 10 0 0
38.273701 24.703552 -3.113529 7 0 0
38.375122 24.579679 -3.1387544 5 0 0
38.703068 24.590151 -3.1903503 10 0 0
38.980923 24.566603 -3.2381356 10 0 0
39.115295 24.451443 -3.2741959 8 0 0
63.269333 62.044495 -4.4269948 11 0 0
63.644356 61.956306 -4.4994831 10 0 0
33.079567 45.530117 -5.1118245 22 0 0
32.949345 45.019566 -5.1361151 21 0 0
32.652893 44.273121 -5.1226778 25 0 0
29.490509 21.300541 -4.6924777 33 0 0
29.20636 20.932838 -4.6669083 92 0 0
29.159679 20.738028 -4.6663246 35 0 0
29.025576 20.48288 -4.6643529 76 0 0
28.768217 20.143723 -4.6422796 72 0 0
30.191931 22.809137 -4.6997161 43 0 0
30.120562 22.590508 -4.7163444 42 0 0
30.073826 22.383696 -4.7160873 47 0 0
29.781273 21.996788 -4.6903601 37 0 0
29.730371 21.791231 -4.7024207 31 0 0
20.032434 34.212826 -2.2512705 20 0 0
29.575422 21.511471 -4.6848722 41 0 0
38.380657 44.574398 -4.0409808 17 0 0
38.567593 44.460892 -4.0950871 20 0 0
38.588459 44.172493 -4.1426301 24 0 0
38.786747 44.072403 -4.2083397 25 0 0
38.964931 43.949017 -4.2719936 27 0 0
39.098999 43.791344 -4.3214126 24 0 0
38.823807 43.193947 -4.3464885 21 0 0
39.329857 24.385546 -3.3171241 6 0 0
39.004936 23.986614 -3.3144159 1 0 0
68.724083 98.807388 -4.0347252 10 0 0
39.031002 23.805929 -3.3412807 3 0 0
68.997284 98.465172 -4.1566148 10 0 0
38.813225 23.48761 -3.3474417 9 0 0
69.124771 97.918037 -4.2693496 10 0 0
39.192039 23.521032 -3.4047403 9 0 0
69.689125 97.953468 -4.4080548 10 0 0
39.503014 23.511158 -3.4565191 9 0 0
63.865536 65.399757 -4.0390372 6 0 0
63.927177 64.984673 -4.107553 1 0 0
64.060417 64.64447 -4.1804476 11 0 0
63.556316 63.689571 -4.2117057 19 0 0
63.609661 63.27747 -4.278316 1 0 0
63.546009 62.752438 -4.3679023 12 0 0
47.513775 38.530849 -4.4493589 29 0 0
47.823711 38.464996 -4.528502 24 0 0
33.644592 26.858124 -3.2142911 18 0 0
33.631172 26.646183 -3.2413125 33 0 0
33.593132 26.416203 -3.2658019 29 0 0
33.60841 26.229443 -3.3028281 20 0 0
33.605953 47.657131 -5.0198083 4 0 0
33.811794 47.595409 -5.0975723 9 0 0
33.426765 46.707233 -5.0755248 4 0 0
53.054569 47.67004 -4.3124304 1 0 0
28.239521 20.419479 -4.631227 94 0 0
20.039398 34.265854 -2.3513899 12 0 0
28.379681 20.672066 -4.6348414 89 0 0
28.574736 20.974878 -4.6477523 27 0 0
28.544155 21.098444 -4.6226287 39 0 0
28.979542 21.584953 -4.6674414 93 0 0
28.710201 21.540562 -4.5915685 35 0 0
48.842323 41.685806 -4.2762637 23 0 0
48.813225 41.381977 -4.3289943 13 0 0
48.69733 40.948887 -4.3598852 25 0 0
47.74894 39.853561 -4.3164024 29 0 0
48.387833 40.08683 -4.4049273 26 0 0
48.096939 39.563534 -4.420465 19 0 0
47.967594 39.163254 -4.460535 23 0 0
31.539848 20.341631 -4.5882292 29 0 0
42.310932 63.56266 -4.911036 4 0 0
31.389256 20.081987 -4.5885921 96 0 0
37.851723 55.592701 -4.5614343 10 0 0
38.122601 55.551773 -4.6522093 14 0 0
38.304516 55.401344 -4.7334685 2 0 0
29.464642 33.432838 -4.8332934 19 0 0
29.34107 33.070889 -4.8418541 19 0 0
29.167248 32.633251 -4.8397894 19 0 0
29.098059 32.328014 -4.8556647 18 0 0
28.8447 31.833597 -4.8412952 18 0 0
28.754642 31.512438 -4.8529344 18 0 0
31.357868 37.423882 -4.8991852 22 0 0
31.420736 37.247303 -4.9412327 19 0 0
30.027304 34.811523 -4.8238044 20 0 0
30.032223 34.584675 -4.8465595 20 0 0
29.681747 33.91713 -4.8405499 19 0 0
37.710888 54.137798 -4.7061682 16 0 0
37.619198 53.586323 -4.750587 11 0 0
36.630749 51.792946 -4.6808257 14 0 0
36.331062 50.990723 -4.6856847 14 0 0
36.075256 50.241024 -4.7049074 22 0 0
35.975288 49.734455 -4.7446337 26 0 0
33.085827 41.283092 -4.9358125 12 0 0
32.770016 40.56884 -4.9480681 24 0 0
32.747749 40.267372 -4.970222 24 0 0
32.428185 39.563118 -4.9617066 23 0 0
32.197983 39.017632 -4.9601388 22 0 0
53.189426 47.440029 -4.3591709 1 0 0
47.937054 41.524376 -4.1234889 5 0 0
47.897026 41.183403 -4.162395 15 0 0
34.711468 45.565315 -4.9006214 21 0 0
34.16534 44.509052 -4.8596482 8 0 0
33.966484 43.931644 -4.8778811 19 0 0
33.544239 43.073959 -4.8532391 26 0 0
33.388752 42.582256 -4.8674049 25 0 0
33.34761 42.19511 -4.9039993 22 0 0
33.232098 41.733601 -4.9208217 15 0 0
36.283703 49.79388 -4.8272662 11 0 0
35.353184 48.162754 -4.7650132 10 0 0
35.315559 47.743668 -4.8093467 28 0 0
35.181229 47.216438 -4.8306503 2 0 0
35.291416 47.020844 -4.8955312 23 0 0
34.724094 45.913483 -4.8541636 19 0 0
28.634542 31.150742 -4.8582511 18 0 0
28.340094 30.604515 -4.8334908 17 0 0
28.215601 30.236361 -4.8509517 17 0 0
27.996634 29.802959 -4.8324656 17 0 0
27.884298 29.476511 -4.8527417 16 0 0
27.732952 29.102121 -4.8362765 16 0 0
65.676048 79.445145 -3.7436347 20 0 0
65.158859 78.233856 -3.7867544 1 0 0
49.663101 24.577398 -3.2144337 7 0 0
69.417084 63.342087 -0.59045845 1 0 0
44.482456 40.348373 -4.9585781 28 0 0
44.385269 40.557743 -4.9114599 5 0 0
44.549873 41.008781 -4.9143586 29 0 0
44.829979 41.57119 -4.9083304 17 0 0
44.86982 41.915051 -4.8755555 10 0 0
43.997158 41.388393 -4.7327518 17 0 0
37.320053 23.821306 -1.4996843 10 0 0
37.524429 23.758642 -1.5354304 17 0 0
37.843544 23.766832 -1.5605309 23 0 0
38.086487 23.734428 -1.5984919 21 0 0
38.168015 23.591457 -1.6296397 5 0 0
39.45026 24.184624 -1.7129395 6 0 0
39.392448 23.950983 -1.7388364 4 0 0
39.449482 23.806839 -1.7620201 6 0 0
39.728188 23.767414 -1.8027472 1 0 0
64.791458 38.470356 -2.9605827 9 0 0
64.556137 38.011299 -2.9827306 25 0 0
64.408455 37.607113 -3.0216725 17 0 0
69.960007 25.934532 1.0679026 1 0 0
69.83902 25.598925 1.0386466 1 0 0
69.156769 66.388504 -0.08365798 21 0 0
35.670578 24.06011 -1.2619644 10 0 0
35.936764 24.048483 -1.2833617 15 0 0
36.169605 24.021929 -1.3190148 23 0 0
36.394348 23.979427 -1.3544525 22 0 0
36.615051 23.932846 -1.389961 19 0 0
36.869423 23.906702 -1.4269906 25 0 0
37.082073 23.861143 -1.4628063 10 0 0
33.866955 24.317957 -1.1791654 8 0 0
33.722099 24.392794 -1.1334617 6 0 0
33.520008 24.43425 -1.1006919 8 0 0
37.110126 27.240162 -1.1893793 8 0 0
36.855034 27.251385 -1.1362151 9 0 0
36.631584 27.294395 -1.0845366 18 0 0
69.552025 62.999596 -0.67153502 1 0 0
69.530022 22.954475 0.75401688 8 0 0
81.099953 26.116436 0.78815585 10 0 0
69.445717 61.526863 -0.89065832 1 0 0
80.52356 25.605465 0.75213969 7 0 0
69.628975 61.235176 -0.95486492 17 0 0
80.927177 25.407583 0.72542417 24 0 0
70.029449 61.133644 -1.0221829 1 0 0
81.106194 25.137589 0.66691399 11 0 0
83.458076 23.223423 0.42335233 20 0 0
83.687424 22.957096 0.39379379 14 0 0
34.666031 27.485811 -0.92670208 6 0 0
36.428879 27.341635 -1.0415845 20 0 0
36.157833 27.345955 -0.98919588 9 0 0
35.963551 27.396885 -0.93912554 8 0 0
35.876953 27.330914 -0.88174009 4 0 0
36.199821 27.367779 -0.9109745 6 0 0
36.450668 27.35799 -0.93875146 8 0 0
34.386242 24.283798 -1.0655756 8 0 0
34.564182 24.238079 -1.0980844 9 0 0
34.775227 24.196428 -1.1315614 8 0 0
34.978359 24.147978 -1.1575549 8 0 0
35.280281 24.175005 -1.1946273 8 0 0
35.434574 24.072271 -1.2115351 9 0 0
50.098648 60.731312 -4.5532398 1 0 0
41.987324 21.01652 -4.1326714 30 0 0
42.213829 20.936764 -4.1722493 49 0 0
41.943493 20.611485 -4.1709204 44 0 0
41.721272 20.31278 -4.1658826 49 0 0
35.453136 24.121073 -1.4449753 17 0 0
35.258259 24.168959 -1.4105862 15 0 0
35.018108 24.193474 -1.3747708 15 0 0
34.811428 24.239653 -1.3256691 18 0 0
34.596428 24.269701 -1.2911682 21 0 0
34.405949 24.324726 -1.2579347 10 0 0
34.167019 24.326139 -1.2228348 9 0 0
29.273321 37.186401 -4.9574671 10 0 0
29.426275 37.650368 -4.9381533 8 0 0
38.271252 38.271252 -5.1161981 4 0 0
38.330261 38.612274 -5.0950718 9 0 0
37.947315 38.494331 -5.0049033 1 0 0
39.153866 40.01054 -5.1242228 10 0 0
38.904358 42.980846 -4.3997374 27 0 0
38.985126 42.754066 -4.4419069 20 0 0
39.131657 42.600101 -4.5017195 25 0 0
39.225582 42.404293 -4.5664763 25 0 0
39.380852 42.260357 -4.6273642 18 0 0
39.587837 42.171513 -4.6741343 27 0 0
41.206539 20.625702 -4.3477607 39 0 0
40.956108 20.33079 -4.338356 21 0 0
40.699631 20.000238 -4.3345952 32 0 0
38.013359 45.126324 -3.8672867 6 0 0
38.204868 44.684753 -3.9770188 6 0 0
39.491219 41.775394 -4.7161798 27 0 0
39.754612 41.746456 -4.7799792 21 0 0
39.310604 40.978397 -4.7683821 27 0 0
39.647217 41.041557 -4.8519902 27 0 0
39.55468 40.646576 -4.8722572 27 0 0
39.692825 40.490543 -4.9307809 23 0 0
39.890369 40.408928 -4.9876981 25 0 0
41.831573 22.298464 -4.2640185 67 0 0
41.8494 22.11138 -4.2825308 39 0 0
41.580246 21.7931 -4.2806134 49 0 0
38.661282 48.291702 -3.5885487 1 0 0
41.719704 21.671652 -4.3115859 37 0 0
38.849171 48.180706 -3.655391 1 0 0
41.570408 21.400988 -4.32094 17 0 0
41.472919 21.158869 -4.3355007 20 0 0
49.653519 60.64315 -4.8075161 11 0 0
41.448853 20.937323 -4.3486896 14 0 0
42.653114 23.955391 -4.2025089 30 0 0
42.534786 23.684282 -4.1993895 33 0 0
42.186951 23.307665 -4.1997709 31 0 0
42.145866 23.064629 -4.2286777 20 0 0
42.013657 22.792568 -4.2322245 24 0 0
41.958324 22.5639 -4.2518144 44 0 0
69.229988 50.761528 4.7995329 15 0 0
25.374146 28.101835 -4.7965598 13 0 0
25.448692 28.382957 -4.7820373 13 0 0
25.789288 28.975794 -4.8315816 14 0 0
25.821295 29.206202 -4.8142447 15 0 0
26.015018 29.633129 -4.8137317 15 0 0
26.274775 30.151196 -4.8397126 16 0 0
33.139153 46.68306 -5.0288248 22 0 0
33.228756 47.13969 -4.9951177 9 0 0
34.581581 49.461075 -5.1421037 2 0 0
23.256048 20.059921 -4.6009417 9 0 0
36.634621 27.286716 -0.95685911 9 0 0
36.902534 27.276548 -1.0013032 10 0 0
37.094395 27.208693 -1.0359286 9 0 0
33.539742 24.421749 -0.95600682 9 0 0
33.705452 24.35388 -0.98722601 9 0 0
33.960621 24.349295 -1.0139717 9 0 0
34.093693 24.264967 -1.0446422 9 0 0
64.167755 71.190514 -4.2348089 1 0 0
64.22908 71.785881 -4.155128 15 0 0
64.581047 72.688263 -4.1092796 13 0 0
64.418518 73.042763 -4.0478334 1 0 0
64.922707 74.108398 -3.9915872 9 0 0
31.627237 42.617184 -5.0447025 5 0 0
31.72057 43.056194 -5.0270271 7 0 0
32.793365 44.839283 -5.1533546 6 0 0
22.220188 22.430603 -4.5891533 10 0 0
22.311768 22.688772 -4.5855198 9 0 0
22.504385 23.053047 -4.6137462 11 0 0
22.52416 23.235014 -4.5940604 9 0 0
22.695663 23.584284 -4.6175056 9 0 0
22.86738 23.929348 -4.6222825 10 0 0
39.11861 24.482012 -3.5589945 10 0 0
38.811481 24.073519 -3.5623271 9 0 0
38.74025 23.83316 -3.5796964 7 0 0
38.681602 23.602087 -3.5821755 8 0 0
38.915253 23.567915 -3.6285179 9 0 0
39.246994 23.572653 -3.6835365 20 0 0
39.480766 23.516584 -3.7296543 14 0 0
26.500765 30.625708 -4.8579731 16 0 0
26.673639 31.054794 -4.8597693 17 0 0
26.764376 31.381395 -4.8597331 17 0 0
27.045029 31.946877 -4.8726745 14 0 0
27.147558 32.295921 -4.8666534 18 0 0
27.456078 32.907066 -4.8905005 18 0 0
27.424076 33.102932 -4.8521576 7 0 0
28.600908 35.030712 -5.0086975 10 0 0
28.75201 35.467789 -4.9922867 12 0 0
28.855679 35.863583 -4.9843025 16 0 0
29.164391 36.783112 -4.9752326 14 0 0
30.972843 28.822063 -4.8429122 18 0 0
30.85989 28.50662 -4.8460279 17 0 0
30.613281 28.071569 -4.8278456 17 0 0
30.472332 27.747139 -4.8340592 17 0 0
30.304836 27.39213 -4.8349004 16 0 0
30.105623 27.01223 -4.830245 16 0 0
29.945478 26.671074 -4.8243322 16 0 0
63.876755 35.48037 -3.3308287 22 0 0
63.835449 35.764206 -3.2842999 24 0 0
64.001633 36.166157 -3.2482245 25 0 0
64.017387 36.455666 -3.2164936 17 0 0
40.628395 23.35293 -2.013252 20 0 0
64.276985 37.245079 -3.1525617 18 0 0
21.64728 20.773506 -4.5802932 19 0 0
21.741598 21.01029 -4.5833449 21 0 0
21.748785 21.171938 -4.5740957 19 0 0
21.921595 21.497211 -4.5941024 9 0 0
21.980335 21.713423 -4.5844746 20 0 0
22.019136 21.911793 -4.5815854 9 0 0
22.176535 22.22303 -4.5968614 10 0 0
46.692936 25.701508 -3.0265443 6 0 0
46.609627 25.444063 -3.0525625 7 0 0
44.808605 24.248138 -2.9644573 13 0 0
45.274078 24.285921 -3.0163357 14 0 0
45.308029 24.090708 -3.0486441 14 0 0
45.756668 24.114548 -3.1000416 14 0 0
34.026352 34.795128 -4.9176869 22 0 0
33.941784 34.455105 -4.9212933 20 0 0
33.923439 34.184959 -4.9598894 21 0 0
33.796928 33.820534 -4.9662728 22 0 0
33.586216 33.120506 -5.0077066 21 0 0
32.904278 32.211002 -4.9371624 20 0 0
33.743752 24.247345 -4.1620975 8 0 0
33.640072 24.369251 -4.1388526 13 0 0
33.592461 24.522995 -4.1220336 18 0 0
33.668427 24.768124 -4.1203675 20 0 0
33.707645 24.987896 -4.1067715 17 0 0
33.960423 25.368683 -4.1264629 33 0 0
29.66642 21.364628 -4.7027445 39 0 0
28.809885 20.755421 -4.6431584 39 0 0
28.839605 20.945509 -4.648221 72 0 0
29.166697 21.346796 -4.6750317 36 0 0
44.844532 23.8543 -2.4842551 3 0 0
44.895111 24.092728 -2.4473643 7 0 0
63.527042 34.391941 -3.4193466 14 0 0
63.561596 34.698093 -3.3897042 16 0 0
63.908573 35.192162 -3.3640203 8 0 0
38.176044 23.61484 -1.6538701 3 0 0
38.047806 23.728765 -1.6207248 12 0 0
37.78801 23.750353 -1.5819809 14 0 0
37.587666 23.817062 -1.5461336 24 0 0
37.290234 23.820597 -1.5142838 9 0 0
37.069111 23.871101 -1.4780312 10 0 0
32.649849 31.739504 -4.9225292 20 0 0
32.333035 31.201841 -4.9050984 19 0 0
32.289749 30.932318 -4.9207897 19 0 0
31.966398 30.398663 -4.9090548 19 0 0
31.588711 29.830212 -4.8734217 18 0 0
31.237383 29.2826 -4.8480363 18 0 0
35.78043 38.209057 -4.948215 24 0 0
34.043148 35.314335 -4.8441062 20 0 0
34.035454 35.02388 -4.8746133 15 0 0
37.672504 48.567101 -4.0717444 6 0 0
