# .PCD v0.7 - Point Cloud Data file format
VERSION 0.7
FIELDS x y z
SIZE 4 4 4
TYPE F F F
COUNT 1 1 1
WIDTH 1565
HEIGHT 1
VIEWPOINT 0 0 0 1 0 0 0
POINTS 1565
DATA ascii
29.258535 10.662994 0.66581535
31.284346 -0.23782015 0.78867388
34.752403 -16.058081 0.85986376
30.039841 -36.591042 2.6256571
27.284901 22.17408 0.48346472
29.276695 10.761141 0.66331339
31.204254 -0.1220746 0.79021549
34.634171 -15.811794 0.8421402
29.973289 -36.154705 2.5782239
27.34128 22.348419 0.47943592
29.298965 10.865072 0.66433287
31.181728 -0.022852898 0.78713942
34.48661 -15.547201 0.8353014
29.971714 -35.830067 2.525212
27.405096 22.529984 0.47900915
29.333683 10.972424 0.65407896
31.084461 0.1042881 0.80123806
34.184059 -15.185402 0.86290264
29.968609 -35.506649 2.4895818
27.464018 22.709204 0.47964239
29.332218 11.066704 0.65941477
31.105761 0.20398617 0.78655815
34.16069 -15.011629 0.84535503
30.033571 -35.280769 2.4398043
27.56909 22.932978 0.47045708
29.319763 11.16288 0.66646624
30.834982 0.35155296 0.82364511
34.135834 -14.837883 0.82185841
30.076704 -35.037758 2.3835413
27.598227 23.091646 0.47203827
29.421076 11.283898 0.64433908
30.68515 0.48025894 0.83670044
34.171787 -14.706264 0.7896986
30.145056 -34.837097 2.3249509
27.727726 23.332415 0.46397877
29.409237 11.380881 0.66024971
30.642437 0.5846076 0.84161758
34.044044 -14.465322 0.799891
30.183319 -34.590858 2.2863014
27.789377 23.520424 0.45915079
29.429285 11.481871 0.65703201
30.561113 0.6996026 0.85287476
33.880043 -14.202387 0.79696655
30.270811 -34.423847 2.2261109
27.888821 23.740953 0.45211029
29.456554 11.589727 0.64771795
30.5536 0.78795576 0.84247351
33.743538 -13.96007 0.79038143
30.265743 -34.144714 2.1912162
27.922771 23.909519 0.46347237
29.475317 11.695688 0.64895439
30.525717 0.90230322 0.84058142
33.631813 -13.73613 0.79258251
30.318138 -33.897278 2.1288412
28.077145 24.19306 0.43915129
29.429058 11.779369 0.66645336
30.436007 1.0122793 0.84377909
33.514381 -13.517458 0.78321505
30.343336 -33.625599 2.0773008
28.103598 24.345028 0.44816971
29.527651 11.908272 0.65344429
30.426016 1.1138144 0.84327364
33.358517 -13.268812 0.7922802
30.457045 -33.505188 2.0311708
28.235268 24.600592 0.42980957
29.559769 12.014576 0.64781332
30.446367 1.1970148 0.82820654
33.304512 -13.087572 0.77443075
30.492922 -33.297382 1.9845889
28.385462 24.874453 0.41883087
29.562519 12.11748 0.65170097
30.347729 1.311202 0.84214211
32.84441 -12.650156 0.82942295
30.465977 -32.968906 1.947371
28.487701 25.110071 0.40645933
29.673422 12.247747 0.62739468
30.349148 1.4058225 0.830338
32.791832 -12.474365 0.81198597
30.583 -32.842815 1.8859198
28.672163 25.418848 0.38923264
29.609804 12.331824 0.64754391
30.322931 1.5086741 0.83230591
32.751587 -12.307461 0.79862738
30.541803 -32.499092 1.8591499
28.715956 25.6087 0.39403343
29.669172 12.448063 0.64149904
30.285929 1.6081679 0.83589935
32.719559 -12.146696 0.78988743
30.68697 -32.430725 1.793689
28.83374 25.864862 0.39021492
29.718002 12.566488 0.64169168
30.293152 1.7060146 0.8322525
32.558884 -11.921206 0.80561972
29.913307 -31.033108 1.8521864
28.92713 26.102024 0.38565159
29.799145 12.690849 0.62710428
30.274239 1.8026395 0.82819748
32.541718 -11.758799 0.77844763
30.116522 -31.057308 1.7884638
28.979019 26.304543 0.39490366
29.83674 12.807172 0.62456656
30.172964 1.9136083 0.84235573
32.493404 -11.604723 0.77720976
30.177479 -30.863831 1.7436731
29.198826 26.659056 0.36639833
29.902182 12.918575 0.62250328
30.212784 2.0024834 0.83307028
32.375927 -11.397135 0.77051258
30.421446 -30.94389 1.6820054
29.373041 26.968702 0.35343981
29.945341 13.04751 0.61843491
30.252794 2.0960164 0.82377529
32.400627 -11.262833 0.75417948
30.572979 -30.891727 1.6167107
29.408983 27.163784 0.36047745
29.948828 13.140078 0.62722874
30.228218 2.1924925 0.82501984
32.123055 -10.9767 0.78305435
30.588533 -30.636452 1.5780351
29.649046 27.547148 0.33484125
30.045279 13.278086 0.61424732
30.224098 2.2909627 0.82745409
32.016289 -10.780719 0.78643799
30.596725 -30.38649 1.547462
29.900043 27.944933 0.29554892
30.101147 13.398726 0.61334467
29.976517 2.4101162 0.85650158
32.018661 -10.649573 0.76174593
30.708424 -30.28091 1.4876883
29.913763 28.126999 0.31325388
30.181561 13.533287 0.59836531
29.946287 2.5100296 0.85863829
31.965868 -10.487279 0.75684834
30.817673 -30.159363 1.4444132
30.092321 28.464556 0.29406261
30.250292 13.659881 0.59519243
29.950335 2.6019511 0.8594532
31.83972 -10.284282 0.76906729
30.913559 -30.032951 1.3868167
30.215282 28.753372 0.29165745
30.290472 13.777389 0.59699821
30.011227 2.6929865 0.83733749
31.417253 -9.9157457 0.81193924
30.928843 -29.798885 1.3482559
30.314331 29.022402 0.28776741
30.355785 13.909289 0.5893383
30.067924 2.7803862 0.82476997
31.253115 -9.6964312 0.82512188
31.036343 -29.677151 1.3129282
30.244625 29.124287 0.3223238
30.478561 14.057478 0.5767746
30.095922 2.8749917 0.82149649
31.242989 -9.5646935 0.8085494
31.124048 -29.542183 1.2566905
30.455923 29.505341 0.30422163
30.533997 14.18777 0.57564688
30.102816 2.967046 0.817101
31.229836 -9.4319 0.80847216
31.260185 -29.47142 1.2087252
30.62923 29.853806 0.29352093
30.553339 14.300654 0.58103418
30.115353 3.0630693 0.81628132
30.996166 -9.1794567 0.82252312
31.252707 -29.200832 1.1672602
30.916809 30.317661 0.25586557
30.694149 14.463791 0.55533791
30.124693 3.1505489 0.80227137
30.986876 -9.0451899 0.81167793
31.119686 -28.782738 1.1588442
30.997932 30.574869 0.26354218
30.721596 14.58111 0.55929375
30.126993 3.2517631 0.80309296
30.800621 -8.8225784 0.83425522
31.354284 -28.841381 1.0964549
31.287954 31.050447 0.23274565
30.790106 14.714417 0.55615568
30.128599 3.3485799 0.80391502
30.668022 -8.6306944 0.83270311
31.364105 -28.599228 1.0531332
31.394711 31.348684 0.22237062
30.874725 14.859904 0.54995775
30.171118 3.4295988 0.78413439
30.553196 -8.4498806 0.83880091
31.362049 -28.380142 1.0242331
31.626747 31.775875 0.20282698
30.93733 14.992784 0.54785061
30.029779 3.5436425 0.80886555
30.542055 -8.3246956 0.82292986
31.368742 -28.126312 0.98279381
31.653925 32.000412 0.22050095
30.95331 15.108337 0.5537343
30.123587 3.6305594 0.79402685
30.478249 -8.1728382 0.82084179
31.303608 -27.797062 0.96662998
31.938105 32.479492 0.19330215
31.086456 15.275727 0.53925085
30.201801 3.7233319 0.77725744
30.418736 -8.0242224 0.8231883
31.418386 -27.705608 0.92212343
32.121597 32.870285 0.19061136
31.100531 15.39194 0.54041481
30.156637 3.8092427 0.78550959
30.373316 -7.8781862 0.81851625
31.488998 -27.571468 0.87613821
32.277916 33.237244 0.18631029
31.217461 15.544667 0.52934217
30.161024 3.9058456 0.78550959
30.324251 -7.7478495 0.80831194
31.101648 -26.867281 0.91022635
32.306358 33.464859 0.2057085
31.281464 15.682484 0.52700663
30.125618 4.0040274 0.7921114
30.267042 -7.6031895 0.8103466
31.164867 -26.706682 0.87507963
32.478374 33.834976 0.1940136
31.312832 15.807776 0.53021955
30.146605 4.0954947 0.77563477
30.217333 -7.4631824 0.80611897
31.119066 -26.427069 0.84198046
32.601746 34.198235 0.20177078
31.429136 15.985156 0.51804018
30.184391 4.190949 0.76983976
30.140816 -7.3000393 0.81210852
31.261366 -26.34149 0.79612207
32.737568 34.547844 0.20329905
31.472166 16.106133 0.51992035
30.098465 4.2857842 0.78474092
30.012554 -7.1292639 0.82566977
31.449823 -26.365705 0.73832417
32.960884 35.005371 0.18923998
31.55698 16.256363 0.51924038
30.155247 4.380826 0.77563477
30.008327 -7.0142002 0.80403852
nan nan nan
33.014553 35.274155 0.20563745
31.624722 16.40587 0.51598501
30.147488 4.4732351 0.77729034
29.938618 -6.8684072 0.80826855
31.111265 -25.518396 0.73603296
33.165527 35.661983 0.20478296
31.675592 16.54356 0.5159049
30.154259 4.5697141 0.77646208
29.921833 -6.7485828 0.80359507
30.869461 -25.012394 0.75154543
33.334141 36.073383 0.20133448
31.70842 16.674173 0.52405596
30.150734 4.6619782 0.77729034
29.876978 -6.6161871 0.79873085
30.791918 -24.712074 0.73965931
33.606705 36.570942 0.18358898
31.771585 16.81884 0.52192354
30.117331 4.7588835 0.78308487
29.852108 -6.4885502 0.79573917
30.608776 -24.283594 0.73270512
33.789898 37.00811 0.17867947
31.823656 16.965107 0.52654505
30.096876 4.8554506 0.77763557
29.809834 -6.3588285 0.78558588
30.389275 -23.828896 0.74535942
33.859718 37.345943 0.19123983
31.916969 17.12521 0.51941633
30.077517 4.9474778 0.78095341
29.700785 -6.1995745 0.7965703
30.346693 -23.56875 0.7295804
34.021206 37.733372 0.18586302
31.922331 17.23518 0.51707506
30.038839 5.0305905 0.79195976
29.662333 -6.0836926 0.78522587
30.163595 -23.173624 0.73613548
34.106907 38.050175 0.20794201
32.011871 17.395527 0.52646303
30.097706 5.1270318 0.7820158
29.622789 -5.9524746 0.794384
30.08271 -22.886524 0.72657871
34.300385 38.528549 0.20210409
32.073868 17.550045 0.52422571
30.087173 5.2233114 0.78367329
29.487617 -5.7850132 0.80032921
30.048317 -22.643831 0.71015215
34.431976 38.929314 0.21573019
32.146965 17.705013 0.52586746
30.071394 5.315073 0.78615904
29.470636 -5.67062 0.79565334
29.997663 -22.395134 0.69587564
34.490795 39.225754 0.22761583
32.2313 17.866364 0.51497269
30.134235 5.403616 0.77538633
29.324354 -5.5059319 0.81289434
30.027117 -22.22632 0.66221952
34.776585 39.826958 0.21636152
32.237377 17.997398 0.52193642
30.195763 5.5057793 0.76021528
29.255318 -5.3607836 0.81781387
29.995438 -21.992615 0.64582729
34.881229 40.197361 0.24500132
32.354198 18.176449 0.52731037
30.091589 5.6000795 0.7863965
29.249504 -5.2533674 0.80647993
29.940786 -21.74572 0.63279915
nan nan nan
32.457893 18.338758 0.50859118
30.107706 5.6837797 0.77431726
29.154926 -5.1141329 0.81021881
29.706831 -21.319305 0.65072536
36.285389 42.390377 0.082275867
32.488277 18.490173 0.52755308
30.0674 5.787775 0.79408455
29.289768 -5.0561848 0.78445339
29.669788 -21.069336 0.64392376
36.291161 42.650253 0.10492373
32.529045 18.623642 0.52454472
30.06303 5.8752203 0.7853303
29.16497 -4.9107771 0.79313421
29.648624 -20.883606 0.61772346
nan nan nan
32.671669 18.832785 0.51442051
30.163521 5.9798803 0.77232313
29.099012 -4.7660017 0.79780579
29.706831 -20.737057 0.57520628
37.153057 44.255394 0.033592224
32.726936 18.981594 0.51417732
30.051561 6.0631118 0.79053545
29.175024 -4.7035961 0.77618885
29.63765 -20.495216 0.57134295
37.141399 44.54998 0.0838027
32.780605 19.148819 0.52966547
30.052753 6.1639295 0.79408455
28.996117 -4.5201197 0.80028439
29.278728 -19.931515 0.6160841
37.582275 45.365238 0.05074501
32.77895 19.264187 0.53346872
29.979586 6.2479281 0.80566216
28.958256 -4.4084387 0.79884911
29.268299 -19.756027 0.60207796
37.735752 45.875515 0.068182468
32.886822 19.46133 0.52920389
30.176994 6.3591304 0.77615738
29.017433 -4.3302183 0.77602768
29.203871 -19.492846 0.59496164
37.89613 46.385746 0.086357117
32.976753 19.638332 0.52870226
30.20113 6.4575014 0.77120066
28.961901 -4.2077093 0.77795458
28.789251 -18.905792 0.64973497
37.959915 46.734493 0.10407448
33.109669 19.826817 0.5165987
30.118139 6.5362911 0.78881073
28.953503 -4.099082 0.77184057
28.626003 -18.584805 0.65244293
38.151371 47.294708 0.11884499
33.177666 20.001263 0.51932621
30.149952 6.63519 0.77341032
28.860624 -3.9638672 0.7849226
28.515905 -18.303444 0.65906429
38.392017 47.909386 0.11879063
33.251759 20.173864 0.52155828
30.099947 6.7287483 0.78524446
28.841928 -3.8525267 0.78057909
28.308146 -17.928852 0.67812634
38.612595 48.521004 0.13097954
33.420761 20.399117 0.50885582
30.158117 6.8254251 0.77890778
28.764267 -3.7247162 0.77730751
28.274343 -17.736286 0.65868378
38.710087 48.963608 0.17260695
33.607292 20.636086 0.50514841
30.33507 6.9360838 0.76167679
28.730492 -3.6137476 0.78441858
28.052944 -17.355465 0.69247341
38.861202 49.48138 0.18774223
33.678333 20.811705 0.50820589
30.400064 7.0347176 0.74044275
28.697018 -3.4987621 0.78715992
27.984566 -17.12627 0.68074608
39.314102 50.420788 0.16980648
33.752808 20.990463 0.51079035
30.328918 7.1269283 0.75559568
28.62694 -3.3760214 0.7826128
27.890852 -16.874971 0.68531227
39.577404 51.103031 0.18102646
33.865257 21.191803 0.50753164
30.352642 7.2225275 0.76397943
28.612391 -3.2689419 0.79090834
27.856176 -16.682121 0.67324781
40.032799 52.051495 0.16686106
34.045639 21.433231 0.49384022
30.334833 7.319026 0.77006149
28.579885 -3.1606588 0.78862667
27.75952 -16.439987 0.67793465
40.037216 52.40197 0.20559454
34.151489 21.63446 0.49184608
30.503666 7.4287715 0.7450099
28.449657 -3.0148973 0.79961681
27.751438 -16.275528 0.6610589
40.305908 53.133564 0.21812439
34.316414 21.871305 0.48084688
30.478687 7.5251474 0.74299908
28.322676 -2.8761463 0.81430101
27.662621 -16.037302 0.65971708
40.484367 53.732643 0.24505711
34.412106 22.070183 0.48668432
30.464636 7.6225309 0.74828672
28.298565 -2.7729893 0.81494665
27.652481 -15.873848 0.64344215
40.775417 54.494503 0.24728012
34.523178 22.279615 0.48425245
30.538971 7.7248206 0.73884296
28.169703 -2.640223 0.83414602
27.623753 -15.694557 0.63628864
40.945805 55.116112 0.27607298
34.617882 22.467161 0.48535395
30.678123 7.8348913 0.72781849
28.143927 -2.5377851 0.83065796
27.55315 -15.478655 0.63186073
41.230865 55.887676 0.29205465
34.794994 22.719118 0.47310352
30.676111 7.9345026 0.72167635
28.08548 -2.4208274 0.82892323
27.536556 -15.320513 0.61640406
41.59399 56.779293 0.28818226
34.894142 22.926723 0.47283506
30.807463 8.0499477 0.70252991
27.990412 -2.2974048 0.85096073
27.485786 -15.125807 0.60839128
42.426506 58.371246 0.23590517
35.137138 23.222954 0.45720053
30.703814 8.1332645 0.72254896
27.939569 -2.1844282 0.84354401
27.445574 -14.942129 0.60378981
42.493988 58.866497 0.28401375
35.252716 23.459091 0.45379639
30.760859 8.2406502 0.71567154
27.912586 -2.0838671 0.84454298
27.122375 -14.510361 0.65483093
42.482376 59.252728 0.35422134
35.343269 23.652704 0.46882629
30.740927 8.3248901 0.72182941
27.906631 -1.9857769 0.85051823
26.804621 -14.101952 0.70385838
42.969704 60.370392 0.34054279
35.563416 23.942736 0.44474506
30.776415 8.4393082 0.71823645
27.844397 -1.8753829 0.84922743
26.650021 -13.813442 0.71853304
42.926823 60.744823 0.40352631
35.68158 24.17198 0.44235229
30.878038 8.5402489 0.70411158
27.803127 -1.7675834 0.85292339
26.663574 -13.686304 0.70389986
nan nan nan
35.883789 24.456087 0.44057798
30.876989 8.6413794 0.72073078
27.789265 -1.6726832 0.85564899
26.568638 -13.48003 0.70955467
nan nan nan
35.958031 24.661726 0.45150948
31.030254 8.7602921 0.69784832
27.774078 -1.5734 0.84597731
26.550524 -13.327965 0.70129442
nan nan nan
36.168434 24.956047 0.43611288
31.073452 8.8687935 0.6835618
27.77294 -1.4827456 0.84202719
26.493246 -13.143919 0.69587326
nan nan nan
36.286057 25.193415 0.4410696
31.115734 8.9729481 0.69311476
27.663507 -1.3576221 0.8580246
26.451231 -12.974215 0.6975112
47.399181 69.743408 0.19875813
36.351784 25.399006 0.44712973
31.177618 9.0946245 0.68486595
27.68161 -1.268857 0.85067701
26.363354 -12.755102 0.69472027
nan nan nan
36.481743 25.632481 0.44501162
31.130526 9.1760769 0.69511032
27.700876 -1.1932259 0.84246302
26.190617 -12.493057 0.71668673
nan nan nan
36.718018 25.969822 0.44581079
31.412884 9.3252754 0.65547895
27.653891 -1.0785675 0.84732485
26.259333 -12.419157 0.6911602
nan nan nan
36.991302 26.319416 0.42940998
31.402468 9.4229946 0.65934992
27.671255 -0.99423695 0.84819651
26.202488 -12.243086 0.70085716
nan nan nan
37.141937 26.582203 0.4245615
31.474346 9.5396109 0.65432072
27.655886 -0.90563869 0.83795166
26.150003 -12.071999 0.69017982
nan nan nan
37.280426 26.847277 0.43486309
31.518112 9.6472311 0.65883446
27.641262 -0.80486441 0.84495258
26.122036 -11.921942 0.69401789
nan nan nan
37.564468 27.213972 0.41807842
31.594719 9.7611885 0.6531415
27.638113 -0.7115097 0.84117794
26.160461 -11.825762 0.66491413
20.675846 30.253017 3.4162817
37.58741 27.388334 0.43240166
31.57213 9.8625183 0.6586504
27.666759 -0.63465261 0.83534765
26.160889 -11.699871 0.65326262
20.423019 30.059959 3.4784636
37.815586 27.739542 0.43002415
31.715767 9.9900684 0.64195585
27.65716 -0.54417181 0.83247137
26.122417 -11.544241 0.65442944
20.112461 29.748472 3.531034
38.35778 28.279366 0.37256002
31.702753 10.093822 0.65065289
27.686436 -0.45909595 0.82256746
26.094194 -11.397745 0.64869881
20.081501 29.892712 3.5714378
38.491619 28.547039 0.38604259
31.757345 10.205948 0.64356136
27.700081 -0.37443924 0.81530571
25.954716 -11.160622 0.66659355
20.121483 30.156425 3.5952854
38.842575 28.997368 0.3684516
31.816139 10.324331 0.64047956
27.638353 -0.2681098 0.82625723
25.677788 -10.826526 0.71255016
20.048241 30.213634 3.6255555
38.813969 29.14599 0.39080095
31.90106 10.443752 0.64310551
27.708857 -0.19685125 0.80840397
25.599113 -10.646914 0.71759319
19.905689 30.184078 3.6659837
38.82531 29.341776 0.41393566
31.962923 10.564125 0.63458395
27.717611 -0.10713768 0.80204725
25.507608 -10.459204 0.7253952
25.140068 39.30048 3.2424672
38.81216 29.520922 0.44782734
31.969978 10.65889 0.64028788
27.717121 -0.015469551 0.80153513
25.470913 -10.314199 0.72642803
24.982906 39.32029 3.3077168
38.841949 29.723238 0.46923113
32.001656 10.778796 0.64133215
27.744967 0.065740585 0.79975891
25.460556 -10.189811 0.71737862
24.832369 39.322994 3.3524206
38.794312 29.878918 0.50047636
32.098633 10.89855 0.63230276
27.747873 0.15649033 0.79430437
25.382092 -10.015993 0.72263098
24.63641 39.259369 3.4070997
nan nan nan
32.107998 11.004734 0.64217234
27.683712 0.26112604 0.80538511
25.350224 -9.8723068 0.72775841
24.512712 39.320686 3.4557352
nan nan nan
32.144047 11.122153 0.64258242
27.742867 0.3356967 0.78926563
25.316019 -9.7442064 0.7181797
24.362329 39.362598 3.5192525
nan nan nan
32.179985 11.245022 0.65276814
27.732388 0.42873192 0.79866648
25.253212 -9.5748596 0.73033667
24.206608 39.338028 3.5848045
nan nan nan
32.282372 11.363867 0.65307236
27.739338 0.51398516 0.80044889
25.240507 -9.4534092 0.73080635
24.022005 39.288372 3.6375618
nan nan nan
32.369789 11.495168 0.64525795
27.755676 0.60146952 0.79640388
25.207396 -9.3235226 0.72610712
23.857328 39.273006 3.6954789
39.464615 31.541328 0.61977816
32.468845 11.625116 0.64586067
27.799953 0.68366051 0.78294992
25.201504 -9.2083921 0.72507763
23.873274 39.287819 3.7153053
39.476208 31.54067 0.65724421
32.602989 11.657471 0.65503311
27.926586 0.65968752 0.7931757
25.263462 -9.2466841 0.73475361
24.060305 39.343281 3.683291
39.520653 31.373945 0.64853477
32.639439 11.554064 0.66343594
27.964951 0.55270195 0.80382872
25.3762 -9.4378347 0.73132181
24.201347 39.314564 3.640605
39.46859 31.134649 0.6443243
32.597008 11.43218 0.67399979
27.995687 0.46758175 0.80815411
25.463165 -9.6124058 0.72900772
24.385221 39.347137 3.5951567
39.474262 30.940504 0.62522364
32.57222 11.319947 0.68154573
28.019588 0.37097836 0.81750345
25.594385 -9.8203783 0.72675276
24.496721 39.264713 3.5475249
nan nan nan
32.576996 11.209688 0.68456411
28.004608 0.28620005 0.82979822
25.655487 -9.9850683 0.72048521
24.692379 39.329239 3.4934654
38.683125 29.969721 0.68924809
32.506413 11.087952 0.68906641
28.035955 0.18753815 0.82927036
25.720797 -10.137579 0.72420073
24.838802 39.30648 3.4498725
38.695259 29.787865 0.66245794
32.402969 10.959785 0.7087307
28.043516 0.093541622 0.83724308
25.874548 -10.378798 0.71231937
24.987656 39.287148 3.3990383
38.634819 29.553917 0.65246487
32.42902 10.855241 0.69818354
28.041235 0.0056791306 0.84286261
26.200722 -10.739305 0.65243816
25.161896 39.310215 3.345984
38.629498 29.361591 0.63541412
32.391518 10.742346 0.70239544
28.067291 -0.092779636 0.84741688
26.199471 -10.847692 0.67040491
19.921412 30.190577 3.7472835
38.776642 29.279919 0.59853268
32.379478 10.63016 0.70770788
28.073908 -0.18300533 0.85134315
26.234919 -10.995849 0.67503929
nan nan nan
39.019932 29.275143 0.54101562
32.383926 10.526543 0.70023251
28.083347 -0.27831268 0.85029221
26.29538 -11.175791 0.67348576
20.166767 30.191917 3.6750047
39.236603 29.240866 0.50207567
32.330757 10.406679 0.70191669
28.090651 -0.3691144 0.86252642
26.311869 -11.300049 0.68800545
20.093113 29.872681 3.6534133
39.525375 29.255836 0.43859959
32.334721 10.313332 0.70906353
28.158255 -0.47864723 0.85951281
26.372873 -11.471218 0.69245863
20.090376 29.673561 3.625937
39.916584 29.340031 0.36115026
32.272736 10.182823 0.71231794
28.171978 -0.57593346 0.86183214
26.397228 -11.615343 0.69954586
20.532042 30.197678 3.5626693
39.884346 29.128054 0.3472476
32.260933 10.077126 0.70721722
28.17193 -0.66584921 0.86673737
26.421408 -11.760336 0.71156454
20.520683 29.973867 3.5413346
39.421432 28.62183 0.39844513
32.300407 9.9760933 0.70900106
28.200617 -0.76736212 0.87488985
26.506884 -11.95466 0.71142817
20.490044 29.731583 3.5114877
39.303165 28.356195 0.38907099
32.247189 9.8730917 0.7100358
28.25168 -0.87062693 0.86632252
26.501095 -12.078249 0.71976709
20.612751 29.735146 3.4772902
39.031094 27.988846 0.40071392
32.187088 9.7546864 0.71747112
28.274717 -0.97160196 0.875453
26.565292 -12.258526 0.72404575
20.652287 29.607059 3.4409878
38.84417 27.682369 0.40844059
32.184998 9.6419334 0.71091127
28.319437 -1.0742579 0.86361074
26.591618 -12.422241 0.73473883
nan nan nan
38.598034 27.356308 0.42338133
32.114059 9.5324726 0.72953939
28.355904 -1.1796184 0.87032509
26.663778 -12.599398 0.73889399
nan nan nan
38.448387 27.080286 0.41939163
32.065632 9.4224663 0.72994423
28.408083 -1.276556 0.86614799
26.754436 -12.805801 0.72833538
nan nan nan
38.313457 26.808022 0.41416645
32.032139 9.3153305 0.73285866
28.492352 -1.4047503 0.85531092
26.874985 -13.038757 0.71702242
47.180561 69.336044 0.53726196
38.155193 26.547691 0.43182802
31.998957 9.2037888 0.73579073
28.682848 -1.5411348 0.83554602
27.033329 -13.305418 0.70870113
47.837147 69.793556 0.39892769
38.029305 26.277775 0.42623043
31.999533 9.1025772 0.73810339
28.799034 -1.6806436 0.81910753
27.041006 -13.448759 0.71970797
47.47369 68.783035 0.38017511
37.804127 25.979113 0.43951607
31.965479 8.9915342 0.74105549
nan nan nan
27.124125 -13.656656 0.72129011
47.611717 68.46077 0.28457308
37.672638 25.726688 0.44100189
31.948383 8.8881226 0.73142958
nan nan nan
27.268982 -13.918905 0.700737
nan nan nan
37.476055 25.435436 0.44496059
31.870173 8.771574 0.74614334
29.379341 -2.1290183 0.74033213
27.722183 -14.447767 0.63683367
43.084759 60.872051 0.68661928
37.329018 25.177885 0.44900465
31.892864 8.6743011 0.73985767
29.381582 -2.2314119 0.74424744
27.74789 -14.614676 0.65024137
43.113922 60.476841 0.62380123
37.230537 24.952642 0.43963814
31.837488 8.5618172 0.74598598
29.49802 -2.3637428 0.7284193
27.779581 -14.788033 0.65722322
43.25032 60.261082 0.54785156
37.107502 24.714064 0.45395851
31.826605 8.4603653 0.75458765
29.585646 -2.4931316 0.72659731
27.829506 -14.978683 0.66619682
43.206688 59.829163 0.49098969
36.904148 24.428545 0.45317173
31.827681 8.3558302 0.74198103
29.628708 -2.6050205 0.71429634
27.881302 -15.165483 0.67018366
nan nan nan
36.81591 24.215313 0.45606327
31.869961 8.2611399 0.74203825
29.915678 -2.7937751 0.68750763
27.947605 -15.373837 0.6763134
nan nan nan
36.572609 23.910788 0.47466183
31.738552 8.141058 0.75517321
29.939449 -2.9064693 0.69224215
28.013264 -15.583462 0.6882205
nan nan nan
36.579258 23.757845 0.45756102
31.783499 8.0468588 0.74501753
30.018343 -3.0325108 0.67355871
28.193762 -15.89842 0.66229916
41.616005 55.97533 0.49006891
36.276711 23.423389 0.4786582
31.784443 7.9428358 0.74187326
30.027721 -3.1416597 0.68543291
28.296965 -16.146635 0.66770697
41.293488 55.15591 0.47534943
36.135666 23.186926 0.4831481
31.784487 7.8435249 0.73873329
30.098278 -3.2664585 0.68228149
28.350039 -16.351427 0.67144585
41.491966 55.061333 0.40719271
35.920349 22.909483 0.49859667
31.701128 7.7310362 0.74889374
30.077143 -3.3663683 0.68989658
28.427444 -16.5804 0.67077589
41.523907 54.684917 0.35255289
35.664749 22.611654 0.52015305
31.67729 7.6298342 0.75904703
30.155275 -3.4950218 0.68065929
28.486063 -16.786434 0.68007851
41.525661 54.361599 0.30741024
35.734985 22.502501 0.49420309
31.583063 7.5268831 0.77545452
30.218008 -3.6242208 0.67855597
28.456825 -16.90448 0.70633507
41.249905 53.63298 0.2794795
35.610477 22.283329 0.49682999
31.56275 7.4173994 0.77548742
30.221727 -3.7288771 0.69158602
28.664297 -17.276722 0.6866622
41.187935 53.18029 0.23650599
35.463165 22.053209 0.50295162
31.54995 7.3134813 0.76466131
30.23686 -3.8378229 0.68828487
28.823298 -17.575876 0.67320204
41.145378 52.775421 0.20095634
35.349289 21.843666 0.50427008
31.523069 7.2132196 0.76550913
30.232075 -3.9450598 0.69285345
28.94393 -17.857344 0.66549206
40.838425 51.993587 0.19302893
35.284996 21.6562 0.49876451
31.537031 7.1118126 0.76937008
30.286303 -4.0687466 0.70199823
29.133917 -18.224586 0.64992905
40.468971 51.190666 0.20175886
35.086258 21.403559 0.51293755
31.519238 7.0126114 0.76865149
30.313038 -4.1881828 0.70112896
29.673269 -18.893368 0.57577276
40.305782 50.647408 0.16428757
35.066582 21.263721 0.48752451
31.495077 6.9177837 0.76409245
30.275267 -4.2694483 0.71680069
29.733286 -19.127777 0.57370424
40.253273 50.203384 0.14599228
34.946732 21.043839 0.50314808
31.444185 6.8074207 0.77816629
30.300133 -4.393959 0.72071791
29.842211 -19.429422 0.58613491
39.293835 48.689419 0.23843384
34.865688 20.873184 0.49921799
31.508724 6.7188883 0.76409245
30.316221 -4.5006161 0.73176432
30.197439 -19.943651 0.53978062
39.219547 48.282848 0.19213867
34.81535 20.69326 0.48042107
31.45134 6.6085653 0.77432823
30.292425 -4.6076908 0.73414755
30.144587 -20.065716 0.56514597
38.804321 47.437016 0.22465372
34.68203 20.497606 0.50249529
31.465916 6.5167465 0.76812649
30.3416 -4.7226543 0.73985767
30.129885 -20.235369 0.59563828
38.750744 47.052555 0.19711828
34.568604 20.300728 0.50454521
31.446646 6.4184113 0.77206755
30.315369 -4.8242674 0.75252485
30.068363 -20.358807 0.62806749
38.652039 46.631039 0.15652704
34.480614 20.118469 0.50282383
31.387054 6.3136253 0.77770281
30.391636 -4.9610996 0.74826097
30.078726 -20.55596 0.64166594
38.643036 46.324017 0.12234926
34.460548 19.965591 0.49118662
31.410894 6.2131691 0.76993227
30.430508 -5.0840559 0.75026226
30.058365 -20.714149 0.66778374
38.538422 45.888508 0.10342789
34.277878 19.738049 0.50412941
31.395433 6.1155262 0.77309179
30.402834 -5.1861324 0.76305723
30.088427 -20.934496 0.69090176
38.401276 45.432644 0.079456806
34.227646 19.578735 0.50265455
31.369919 6.0130301 0.77783155
30.412497 -5.2982836 0.76497936
30.350554 -21.398397 0.66815948
38.351688 45.07259 0.053348541
34.042732 19.353813 0.51618433
31.39393 5.9170842 0.77928114
30.400858 -5.4021168 0.78511477
30.432205 -21.66914 0.67093229
38.059032 44.44014 0.053756714
33.948597 19.175507 0.50436354
31.371109 5.8149242 0.77401686
30.443602 -5.5338821 0.77626085
30.501276 -21.938574 0.68177462
nan nan nan
33.873497 19.007763 0.50689888
31.343569 5.7174373 0.77416182
30.457016 -5.6489 0.78237009
30.514301 -22.15097 0.7022872
36.879353 42.458111 0.15979528
33.814705 18.849003 0.50121689
31.262226 5.6143174 0.78762007
30.475836 -5.766655 0.7974391
30.537659 -22.366627 0.72200251
36.870586 42.197189 0.12808371
33.619663 18.620235 0.52294064
31.318596 5.5191283 0.77891159
30.559074 -5.9176903 0.79171085
30.650051 -22.68984 0.73291254
36.632874 41.659973 0.13279915
33.524681 18.447029 0.53431082
31.340879 5.4183941 0.78034258
30.579922 -6.037631 0.79656649
30.733019 -22.984449 0.74239159
36.407948 41.130711 0.13717079
33.440872 18.280331 0.53272629
31.292866 5.3212438 0.78825092
30.636494 -6.1736765 0.79554367
30.76836 -23.219955 0.75403547
35.874702 40.267887 0.18095779
33.253616 18.066975 0.55306101
31.279095 5.2201605 0.79062319
30.640667 -6.2928476 0.8027792
30.865652 -23.535845 0.77523088
35.634712 39.736034 0.18113041
33.21608 17.924288 0.53328609
31.228888 5.1236014 0.78937531
30.637257 -6.4037199 0.81154442
30.954065 -23.83503 0.77178288
35.461823 39.29792 0.17862463
33.137169 17.757664 0.53705359
31.209423 5.022872 0.79254484
30.71909 -6.5532227 0.8063755
30.976723 -24.053385 0.7868309
35.180954 38.755558 0.19287586
32.996765 17.593994 0.54885912
31.229834 4.9359083 0.79395342
30.768227 -6.6781416 0.80721188
31.038801 -24.3179 0.80947685
35.091469 38.408234 0.17904377
32.944801 17.435986 0.54328823
31.184963 4.8354731 0.80107832
30.726513 -6.7785168 0.83190203
nan nan nan
35.024147 38.100414 0.16102791
32.863674 17.283537 0.54680824
31.177782 4.7395649 0.79273081
30.810219 -6.9314623 0.82142401
31.878063 -25.724197 0.72387838
34.903778 37.725868 0.15281916
32.725014 17.101234 0.55990887
31.181648 4.6481228 0.79193783
30.853197 -7.0555439 0.82327414
31.929012 -25.989208 0.74290705
34.721031 37.298744 0.14647198
32.642643 16.933411 0.55396318
31.145473 4.5436292 0.79749107
30.891605 -7.2002268 0.82449675
32.114788 -26.446058 0.73842669
34.562687 36.891289 0.15303469
32.666992 16.835232 0.54564953
31.130186 4.4435253 0.80899429
30.999765 -7.3734121 0.8250823
31.960171 -26.488325 0.80395889
34.3396 36.418861 0.15534496
32.592747 16.684017 0.5378027
31.17115 4.3558207 0.79273081
31.089935 -7.5226049 0.81942797
31.818819 -26.534304 0.83890057
34.227783 36.080917 0.14650059
32.54805 16.529251 0.5368948
31.118877 4.2476225 0.80066442
31.104422 -7.6587391 0.82967281
31.734236 -26.691751 0.89078712
33.900146 35.507675 0.16749477
32.442371 16.378227 0.54425001
31.101435 4.1614885 0.8030448
31.249687 -7.8368731 0.80489302
31.802597 -26.976078 0.89427233
33.670414 35.054337 0.17940378
32.321632 16.210989 0.55474329
31.15229 4.0593209 0.79431772
31.299603 -7.9809437 0.82068205
31.669308 -27.054977 0.94815159
33.728691 34.895271 0.14405298
32.251656 16.060207 0.55207157
31.075045 3.9572763 0.8107729
31.473051 -8.1932077 0.80090046
31.674055 -27.289261 0.97459984
33.485695 34.425774 0.15990591
32.221039 15.93175 0.54792643
31.115236 3.8552175 0.80364037
31.935104 -8.5469465 0.73586655
31.624464 -27.470886 1.0085244
33.343697 34.065155 0.1590538
32.153091 15.789062 0.54988337
31.145386 3.7578681 0.79809284
32.033619 -8.720871 0.73392439
31.893875 -28.033966 0.99587917
33.22924 33.746346 0.15297318
32.095543 15.645914 0.55044985
31.14089 3.6666112 0.79809284
32.143791 -8.9021368 0.72480917
31.790884 -28.154915 1.0381758
33.101032 33.406773 0.15751839
32.081535 15.525991 0.5435462
31.215433 3.5664558 0.78999472
32.200882 -9.0574617 0.72952509
31.553787 -28.097164 1.1159277
32.915016 33.022411 0.15041018
31.936407 15.356103 0.54792356
31.16045 3.4686916 0.79791164
32.265987 -9.2179775 0.73303413
31.65774 -28.477375 1.1204562
32.673576 32.577145 0.17533731
31.875013 15.219596 0.54887724
31.174086 3.3670247 0.79474497
32.34465 -9.3928118 0.72859669
31.593058 -28.636425 1.1656168
32.522743 32.226517 0.16417456
31.708378 15.03902 0.56759357
31.167192 3.2711511 0.79016781
32.412464 -9.5570602 0.7317791
31.530067 -28.810738 1.194658
32.449425 31.955648 0.16034746
31.631676 14.898941 0.57113695
31.240627 3.1650767 0.78666925
32.526821 -9.7473822 0.72224522
31.485531 -28.997673 1.2446859
32.223652 31.547903 0.17606688
31.558952 14.761268 0.57403326
31.115555 3.077611 0.80564833
32.697483 -9.9697256 0.70961666
31.381277 -29.108772 1.2881036
32.135395 31.26849 0.16860628
31.550814 14.64272 0.55633497
31.136782 2.9751174 0.79632807
32.77121 -10.141354 0.71211958
31.349447 -29.326862 1.3205531
31.899483 30.849804 0.19441843
31.448982 14.496156 0.56415319
31.178392 2.8753412 0.78841162
32.77393 -10.27516 0.71998453
31.286142 -29.493008 1.3583403
31.836115 30.60038 0.18304491
31.235479 14.311089 0.59575319
31.185534 2.7735221 0.79062319
32.781029 -10.411957 0.73279524
31.192266 -29.632381 1.4072032
31.755466 30.345652 0.16763783
31.254879 14.204618 0.583529
31.196869 2.675817 0.78745985
32.918842 -10.628901 0.7251792
31.064486 -29.714634 1.4538975
31.56221 29.978495 0.17379045
31.144827 14.058569 0.58289814
31.06558 2.5865576 0.8117981
32.892879 -10.748915 0.73172569
31.073275 -29.992729 1.4812748
31.265848 29.519024 0.20570612
31.165487 13.963551 0.57481956
31.121174 2.484817 0.80610943
32.963058 -10.911061 0.7300787
30.971291 -30.111 1.532217
31.148909 29.231115 0.21162558
31.043108 13.815106 0.59608889
31.258707 2.3697751 0.78243732
32.963009 -11.059967 0.75463629
30.830057 -30.176228 1.5806866
30.813978 28.753805 0.25076628
30.945185 13.676103 0.59356451
30.978065 2.3016801 0.82127762
32.948776 -11.188309 0.76501989
30.720667 -30.297714 1.6240773
30.645403 28.42568 0.26673841
30.980801 13.57724 0.57844305
30.876408 2.2117682 0.84991312
33.069408 -11.382729 0.76737928
30.672745 -30.491585 1.6679575
30.529247 28.148508 0.26710415
30.832279 13.423333 0.59927034
31.013233 2.1005363 0.82629299
33.062996 -11.517174 0.78236341
30.804064 -30.936615 1.6890118
30.399776 27.862034 0.26412725
30.688412 13.267433 0.61471748
31.035519 1.9967971 0.81620693
33.152782 -11.709253 0.77131224
30.760979 -31.15559 1.7243049
30.27228 27.580156 0.26115513
30.640368 13.148383 0.60876608
30.922098 1.9135654 0.83731556
33.157707 -11.852041 0.78461218
30.616426 -31.219578 1.7733352
30.12933 27.295179 0.27268934
30.634909 13.043322 0.60033607
30.876471 1.8181844 0.84737682
33.183189 -12.007896 0.79485178
30.228676 -30.923424 1.8533974
29.913649 26.941162 0.2929635
30.499166 12.893311 0.61929893
30.888407 1.7203522 0.83889055
33.35622 -12.254414 0.78317595
30.047956 -30.932125 1.9064136
29.711302 26.602655 0.31696224
30.450237 12.776062 0.61832047
30.955404 1.610554 0.83542919
33.603951 -12.549133 0.76060343
30.86393 -32.380131 1.8453465
29.681927 26.432993 0.30109024
30.410849 12.657472 0.61116362
31.065651 1.5082078 0.81119871
33.752907 -12.785898 0.75287247
30.824602 -32.61721 1.881357
29.523573 26.138321 0.30563879
30.28997 12.520046 0.62263727
31.047884 1.4087234 0.81657457
33.836113 -12.983833 0.74292278
30.743015 -32.780327 1.9314125
29.250998 25.73428 0.33966541
30.274591 12.409966 0.62080812
31.069494 1.3083282 0.81567049
33.819969 -13.120819 0.77173424
30.707794 -33.013111 1.968082
29.184544 25.539028 0.3372674
30.215553 12.301939 0.61642122
31.132586 1.1969838 0.79850531
34.002502 -13.384253 0.7533536
30.663198 -33.234097 2.0141196
28.994469 25.212378 0.35602474
30.087208 12.151013 0.62993813
31.226641 1.0850818 0.78585005
34.004326 -13.534779 0.76756334
30.602047 -33.44677 2.0534303
28.815195 24.933792 0.36962509
30.028624 12.044656 0.63490534
31.256073 0.97756624 0.78342295
34.204803 -13.806787 0.75336981
30.502668 -33.588833 2.1061192
28.732847 24.717388 0.37219048
30.049265 11.946776 0.62665939
31.28091 0.87512016 0.78179455
34.230598 -13.982574 0.76374578
30.454584 -33.809917 2.1531422
28.499874 24.378689 0.39888
29.897289 11.797118 0.63482809
31.348492 0.76078653 0.77314091
34.396492 -14.243855 0.76062155
30.437641 -34.080879 2.1888092
28.368092 24.126562 0.40608883
29.85751 11.69311 0.63668203
31.347397 0.66183615 0.77079439
34.460819 -14.44059 0.76609612
30.361057 -34.277336 2.2387059
28.245703 23.884535 0.40634251
29.850338 11.59359 0.62374496
31.311792 0.5638628 0.77857971
34.448467 -14.587749 0.77010489
30.367815 -34.590385 2.2641141
28.157759 23.672615 0.41070175
29.725033 11.463434 0.64083338
31.325287 0.46229649 0.77855444
34.449642 -14.744604 0.79095078
30.26631 -34.736645 2.3260849
27.95673 23.372082 0.43764257
29.705235 11.357017 0.6394949
31.230572 0.37484217 0.79569054
34.45639 -14.891037 0.80574322
30.196548 -34.949562 2.3676071
27.88662 23.165739 0.42954063
29.674309 11.24356 0.62654924
31.266188 0.26923418 0.78245687
34.366409 -15.002377 0.83230591
30.137852 -35.166546 2.4088793
27.803326 22.976692 0.42694712
29.542212 11.119061 0.64923048
31.302706 0.1583128 0.78320694
34.473709 -15.218874 0.82655525
30.117674 -35.447582 2.454761
27.644213 22.717072 0.44619322
29.451462 11.00133 0.65114737
31.25979 0.066636562 0.78243732
34.675514 -15.517664 0.81288862
30.148199 -35.813938 2.4959795
27.596018 22.546227 0.43813276
29.424219 10.895306 0.64650154
31.294733 -0.044532299 0.77853489
34.713127 -15.705046 0.82892799
30.06163 -35.99316 2.5408158
27.413942 22.273527 0.45731163
29.343798 10.777065 0.65132666
31.319691 -0.14940786 0.77152634
34.882141 -15.985939 0.80734873
30.057529 -36.326046 2.5771124
27.266144 22.029911 0.47485113
29.32975 10.679619 0.64859915
31.324663 -0.25540924 0.77231789
34.90937 -16.169178 0.82506561
30.051069 -36.642574 2.6232145
27.154329 21.816051 0.47027445
29.286007 10.571161 0.64235592
31.353624 -0.36170578 0.76453924
34.894611 -16.32362 0.84221029
30.091312 -37.041004 2.665442
27.08259 21.634384 0.47266912
29.208693 10.460104 0.65091991
31.42062 -0.48106623 0.75524759
34.813988 -16.431416 0.86199713
30.049259 -37.271748 2.6999855
26.902517 21.373255 0.49251127
29.154392 10.350477 0.64659357
31.459795 -0.59042501 0.75536299
35.003738 -16.73505 0.85737085
nan nan nan
26.8391 21.201412 0.4836812
29.055399 10.23613 0.6502018
31.471212 -0.69910336 0.74520969
35.138344 -17.00144 0.84746075
41.0989 -56.924641 1.7952459
26.715799 20.986879 0.4923048
28.943842 10.115633 0.66514397
31.479095 -0.80242968 0.74055338
35.24398 -17.248936 0.84823322
41.004486 -57.261181 1.8723931
26.583931 20.768143 0.50772238
28.954643 10.026207 0.64892673
31.433241 -0.89884233 0.74916077
35.191917 -17.381645 0.86406469
nan nan nan
26.365076 20.48848 0.52722311
28.873621 9.913578 0.64515686
31.439943 -0.99730253 0.73504496
35.119377 -17.499397 0.88265467
41.110447 -58.462681 1.9652147
nan nan nan
28.671402 9.7815914 0.66787004
31.397804 -1.089561 0.73342466
35.089481 -17.649361 0.8887248
nan nan nan
26.125467 20.202562 0.51839447
28.542648 9.7555828 0.64382172
nan nan nan
34.830227 -17.462368 0.86424685
nan nan nan
26.096758 20.305199 0.52610159
28.50012 9.8409824 0.648283
nan nan nan
34.526749 -17.06473 0.87848377
40.991043 -58.278526 1.8724952
26.166372 20.47443 0.51818275
28.464445 9.9233513 0.6602211
30.613506 -0.7112174 0.7778368
34.363911 -16.775776 0.86715412
nan nan nan
26.120592 20.560066 0.53938913
28.488668 10.022672 0.65220594
30.431995 -0.56832504 0.80665064
34.316223 -16.582211 0.84588051
nan nan nan
26.224823 20.762947 0.51886749
28.459595 10.110729 0.65398693
30.356249 -0.45442724 0.79459476
34.166405 -16.307522 0.83349323
29.803692 -37.565731 2.6767099
26.296347 20.9375 0.51533985
28.479874 10.205362 0.6510601
30.344507 -0.36402893 0.79487562
34.113266 -16.105482 0.82672262
29.713377 -37.106091 2.6377866
26.287529 21.052958 0.52397728
28.537245 10.312981 0.64103603
30.286165 -0.25032234 0.7986784
33.836136 -15.743769 0.83967066
29.718649 -36.780308 2.5832925
26.297165 21.18301 0.52390909
28.473515 10.393402 0.64903545
30.169481 -0.12078905 0.80770874
33.698128 -15.492855 0.82624722
29.63658 -36.279091 2.5395379
26.42218 21.402205 0.51890755
28.502985 10.49094 0.64857149
30.162291 -0.027922153 0.80725718
33.641029 -15.293991 0.82054615
29.677111 -36.053379 2.4897058
26.465717 21.566666 0.50625372
28.443428 10.572042 0.65566874
30.090517 0.081983566 0.80391979
33.62574 -15.125971 0.79020548
29.705645 -35.745701 2.4276757
26.579298 21.780886 0.49413729
28.552479 10.693593 0.64017391
30.073141 0.18528795 0.79621935
33.671257 -15.001347 0.75717831
29.735605 -35.507526 2.3796594
26.668324 21.977924 0.48725748
28.555347 10.785748 0.63574696
30.064934 0.28205252 0.79137802
33.439941 -14.685406 0.77760935
29.780964 -35.265133 2.3318167
26.632887 22.078495 0.51126385
28.582182 10.888443 0.63537645
29.926895 0.40706825 0.81300354
33.475574 -14.563402 0.73963833
29.848331 -35.060642 2.2735989
26.808828 22.347527 0.48655415
28.58577 10.981258 0.6394515
29.946255 0.49797392 0.79891491
33.278122 -14.275566 0.7555213
29.85585 -34.746796 2.2395182
26.878515 22.534267 0.47894716
28.564837 11.072346 0.65219259
29.893911 0.60605192 0.80153561
33.254471 -14.108145 0.73333931
29.925837 -34.550934 2.1815879
26.901669 22.685045 0.48600054
28.593725 11.176497 0.642519
29.786177 0.71868372 0.80884552
33.115242 -13.86418 0.7348218
29.965292 -34.30867 2.1273978
27.065731 22.951527 0.46411467
28.615213 11.274696 0.64313316
29.699585 0.8312459 0.82173109
32.779945 -13.491915 0.76049137
30.03042 -34.078842 2.0721412
27.08691 23.110136 0.46594477
28.681242 11.389689 0.62645721
29.678478 0.9277792 0.81439304
32.468437 -13.139622 0.79485178
29.996956 -33.757965 2.0337381
27.18335 23.325592 0.45812941
28.726341 11.495243 0.62704897
29.620182 1.034446 0.82241869
32.443928 -12.979334 0.77379656
30.092037 -33.608837 1.9819727
27.229782 23.501446 0.46580553
28.702694 11.586706 0.63563633
29.580248 1.1332531 0.82716322
32.24107 -12.704079 0.79199696
30.194841 -33.472439 1.9374094
27.376839 23.763092 0.4479208
28.748539 11.684359 0.63202
29.598345 1.2271364 0.81764936
32.338814 -12.638929 0.76285934
30.173904 -33.134766 1.892875
27.499212 23.999849 0.43588257
28.760401 11.795237 0.63798571
29.526945 1.3300469 0.81875038
32.226574 -12.418818 0.75048733
30.293386 -33.026398 1.8304613
27.454855 24.11058 0.45110607
28.763708 11.890505 0.63277102
29.533806 1.4252779 0.80660009
32.215317 -12.271366 0.72781038
30.296064 -32.744041 1.7908709
27.58712 24.366343 0.44185638
28.822023 11.997651 0.63099623
29.526499 1.5180969 0.80561161
32.156689 -12.108099 0.72313976
30.310705 -32.482311 1.7421608
27.656744 24.556776 0.44147253
28.846889 12.104534 0.62146425
29.478909 1.6206875 0.80268908
31.749546 -11.714972 0.76891899
30.242775 -32.101814 1.7124794
27.69697 24.744089 0.45038748
28.895796 12.223669 0.62067032
29.490406 1.7105274 0.79837608
31.723248 -11.562658 0.754776
30.259892 -31.849739 1.6721423
27.865416 25.038317 0.42906618
28.956663 12.333432 0.61386442
29.522408 1.8020382 0.79502344
31.679943 -11.400774 0.74896812
29.856831 -30.978264 1.6889107
27.914026 25.229877 0.43728542
29.0212 12.449589 0.61065006
29.484335 1.8982258 0.79909754
31.32703 -11.051174 0.7926755
30.039745 -30.973858 1.6274314
27.997314 25.453888 0.42776632
29.007248 12.54643 0.61246347
29.464523 1.9961343 0.79122543
31.25474 -10.875393 0.78082323
30.068335 -30.748146 1.5867448
28.024622 25.629814 0.43490553
29.018436 12.64679 0.6143918
29.499111 2.0829945 0.78271103
30.953409 -10.563572 0.81691408
30.124044 -30.56287 1.5349073
28.16231 25.906734 0.43138933
29.006596 12.744666 0.6338315
29.417831 2.187716 0.8030076
30.709799 -10.289649 0.84395409
30.327257 -30.573132 1.4788637
28.293535 26.165779 0.41973734
29.020197 12.846371 0.62615681
29.391281 2.2727003 0.80033064
30.723516 -10.170458 0.8188715
30.347097 -30.339252 1.4397936
28.467344 26.496326 0.40265751
29.080942 12.968674 0.62323475
29.264565 2.3897316 0.81968355
30.549902 -9.9421234 0.83495045
30.470652 -30.251049 1.38625
28.486498 26.672716 0.41753435
29.058416 13.059173 0.63566875
29.136431 2.497227 0.83908558
30.507753 -9.7922745 0.82969189
30.638121 -30.210251 1.3272376
28.659819 26.978367 0.39252901
29.135344 13.188148 0.62062216
29.171844 2.5745461 0.82129478
30.404148 -9.6080332 0.82932377
30.740047 -30.117851 1.2748797
28.918192 27.38225 0.35543394
29.170105 13.289417 0.61853313
29.058357 2.6792057 0.84248495
30.327768 -9.446703 0.82939672
30.798008 -29.940468 1.2383461
29.063253 27.676064 0.34723949
29.160608 13.399432 0.62770081
28.992382 2.7742939 0.85099363
30.240824 -9.2631302 0.83251858
30.860699 -29.758049 1.194474
29.209759 27.982235 0.33829927
29.229462 13.523035 0.62345695
29.015478 2.8651252 0.84844828
30.215723 -9.127265 0.8143425
30.972687 -29.655315 1.1348758
29.478643 28.425018 0.30462265
29.246655 13.629078 0.62853336
28.991516 2.9558554 0.84093094
30.169611 -8.9804707 0.81000662
31.048666 -29.480019 1.0900786
29.510265 28.627987 0.31830835
29.265078 13.740749 0.6238246
28.905163 3.0556386 0.85291481
30.070127 -8.8052197 0.80951118
31.066502 -29.266773 1.0514419
29.384933 28.671942 0.36274958
29.434206 13.902984 0.60147429
28.858418 3.1516283 0.86228561
30.100616 -8.7023554 0.7924428
31.007797 -28.943058 1.0331452
29.830097 29.264544 0.29367542
29.442148 14.002648 0.60844135
28.907085 3.2359829 0.84206581
30.070038 -8.5779457 0.78988743
30.994974 -28.68214 0.99313259
29.972511 29.600464 0.28538036
29.504988 14.137673 0.60467815
28.859625 3.3315725 0.85146523
29.925615 -8.3705988 0.80300808
31.005106 -28.417061 0.96754074
30.094879 29.885519 0.28439856
29.490328 14.239472 0.61506844
28.860664 3.4193592 0.85232019
29.869883 -8.2346888 0.78964901
31.082792 -28.30051 0.92703485
30.212099 30.203299 0.28138971
29.569027 14.372174 0.60900927
28.860916 3.5113411 0.84900188
29.758356 -8.0480776 0.79745483
31.135992 -28.105782 0.87915993
30.181124 30.330997 0.30402803
29.602734 14.48354 0.61128569
28.85146 3.5996718 0.85156775
29.696632 -7.9055996 0.8006835
31.03549 -27.754559 0.86791563
30.384085 30.723045 0.28712177
29.629696 14.597765 0.61445332
28.827147 3.692884 0.85669994
29.767498 -7.8272848 0.77674007
31.059885 -27.551331 0.83800602
30.766804 31.321381 0.24224567
29.758308 14.762542 0.5989275
28.875544 3.7821612 0.84482908
29.728817 -7.692522 0.77640724
30.885344 -27.091515 0.83381462
30.896048 31.629488 0.22846365
29.848534 14.898481 0.58156967
28.804592 3.87324 0.84935379
29.630245 -7.5280848 0.77150393
30.984568 -26.985409 0.78497219
31.378923 32.316174 0.1691041
29.834673 14.998583 0.60634279
28.823507 3.964009 0.84677982
29.634296 -7.416708 0.76386595
30.878307 -26.617111 0.77779627
31.467487 32.609688 0.17507935
29.996523 15.170369 0.58565331
28.891129 4.0487862 0.83562708
29.542082 -7.2522802 0.76823997
30.855997 -26.365829 0.75629902
31.523491 32.871887 0.18720675
30.049271 15.304111 0.57423735
28.868538 4.1414657 0.83157921
29.437361 -7.0883121 0.76960373
30.856703 -26.144548 0.71690845
31.61108 33.17981 0.19980192
30.160915 15.468326 0.56665421
28.861086 4.2334604 0.8291316
nan nan nan
30.692989 -25.717573 0.71322536
31.985489 33.766796 0.15002823
30.216085 15.589511 0.57526493
28.855343 4.3211594 0.83918285
29.009615 -6.6584425 0.82515764
30.463425 -25.217377 0.73515177
31.923908 33.912796 0.18407536
30.272789 15.727662 0.57287073
28.843 4.413126 0.8417592
28.889963 -6.4923286 0.83909273
30.384771 -24.911522 0.71041584
32.159874 34.371101 0.16606808
30.29299 15.845816 0.56732607
28.838614 4.5006523 0.83429432
28.841452 -6.3564701 0.83155155
30.23052 -24.520271 0.70590258
32.226662 34.660683 0.17763758
30.396338 16.000504 0.56199932
28.914227 4.5909257 0.82138729
28.777555 -6.2192965 0.83112574
30.105394 -24.156818 0.70462561
32.498192 35.167191 0.16150093
30.505297 16.1642 0.55045176
28.856522 4.6835365 0.8317132
28.789696 -6.1186028 0.82207346
29.982712 -23.810337 0.70241261
32.577408 35.477715 0.17158175
30.476074 16.262856 0.56831837
28.846214 4.7710857 0.82510948
28.770052 -6.0034504 0.81857157
29.88579 -23.486946 0.69695568
32.850525 36.00724 0.148139
30.630636 16.44367 0.54923344
28.891191 4.8540554 0.81734943
28.737679 -5.88801 0.80760288
29.77981 -23.176497 0.68501854
32.937248 36.323044 0.15855598
30.701883 16.594048 0.5493412
28.907803 4.9415822 0.8231082
28.69519 -5.7635784 0.81278324
29.660297 -22.82443 0.67843437
33.149525 36.77253 0.14857531
30.723854 16.706772 0.55400419
28.902206 5.0250301 0.81979704
28.695133 -5.6589575 0.79646158
29.673868 -22.654446 0.65936852
33.38636 37.266056 0.13396215
30.853104 16.86924 0.54014921
28.985685 5.1130309 0.80515337
28.64002 -5.5351038 0.79888105
29.625383 -22.426174 0.65046597
33.444469 37.57206 0.14942932
30.970079 17.043892 0.52226305
28.866869 5.2041173 0.82582664
28.566757 -5.3990917 0.79562759
29.671692 -22.275978 0.60789776
33.556396 37.931553 0.17238617
31.027948 17.197922 0.52957392
28.939732 5.3008513 0.81290579
28.612164 -5.3060865 0.79032516
29.682835 -22.078569 0.5855341
33.707909 38.352467 0.1727829
31.057344 17.328381 0.53740311
28.943323 5.3928518 0.81204462
28.577059 -5.1831684 0.78977823
29.349068 -21.516542 0.62438726
33.90139 38.815269 0.16756916
31.214655 17.509365 0.51895428
28.967157 5.4769316 0.8119216
28.498459 -5.0568914 0.78688478
29.323092 -21.312572 0.61302423
34.143379 39.352535 0.1458602
31.265778 17.657806 0.5123601
28.953939 5.5645061 0.8052783
28.474079 -4.9448204 0.78410673
29.295643 -21.099512 0.58389139
34.370373 39.866085 0.15219307
31.330088 17.807928 0.52476501
28.977676 5.6571927 0.80933952
28.423618 -4.8175316 0.78630733
29.286148 -20.898329 0.56514597
34.59967 40.40081 0.14182568
31.569038 18.0448 0.4919138
28.964399 5.7489247 0.80687618
28.425512 -4.7175379 0.77875614
29.385052 -20.81353 0.53291607
34.816422 40.914051 0.14335728
31.771917 18.266407 0.47061253
28.946724 5.8362379 0.80946064
28.421059 -4.6152287 0.76322794
28.971563 -20.199028 0.57546473
34.950333 41.345581 0.14972687
